# .PCD v0.7 - Point Cloud Data file format
VERSION 0.7
FIELDS x y z intensity ring
SIZE 4 4 4 4 2
TYPE F F F F U
COUNT 1 1 1 1 1
WIDTH 1168
HEIGHT 1
VIEWPOINT 0 0 0 1 0 0 0
POINTS 1168
DATA ascii
-4.7832189 0.69754225 -1.9160228 99.75 2
-4.9501271 0.45977685 -1.9086757 95 3
-7.1647282 2.7138965 -2.0606241 143.8 16
-7.687263 2.4548111 -2.1104856 118.3 17
-5.7875013 2.3428981 -2.0069625 122 10
-6.0726199 2.0967188 -2.0135844 100.4 11
-7.8422923 1.9643452 -2.0523529 120.9 18
-8.1696348 1.5895765 -2.0354671 102.45 19
-6.378871 1.7432878 -2.0274947 116 12
-6.7175536 1.4609343 -2.0581005 102.60001 13
-8.4116411 1.0899982 -1.9875968 72 20
-8.6832895 0.67328966 -1.9475244 65 21
-7.104527 1.0635977 -2.0743759 105.35 14
-7.3621292 0.70787549 -2.0630074 115.85001 15
-10.882145 4.0794649 -1.9087055 102.8 29
-11.279027 3.5596979 -1.8577572 97.900002 31
-8.8228235 3.5413771 -2.0414729 117.5 22
-9.0504227 3.0773201 -1.997052 103.48 23
-11.776943 2.944469 -1.8066673 108.2 33
-12.31809 2.4119713 -1.763447 91.5 35
-9.3901749 2.5668275 -1.9474161 124.5 24
-9.712039 2.102155 -1.9077156 105.225 25
-13.252594 5.0190773 -1.8046036 141 36
-13.942416 4.4653502 -1.7723 106.225 37
-49.119881 7.8158302 2.9117088 166 58
-23.507002 2.4712923 1.6762449 170.5 59
-14.812003 3.7891128 -1.7245533 99.599998 38
-14.177024 2.8312757 -1.4897302 80 39
-10.968639 3.0230248 -1.8461473 107.2 28
-11.467887 2.55743 -1.8005643 82.199997 30
-16.490677 2.3055332 -1.6072381 105 40
-14.200354 1.1982772 -1.2096094 73.849998 41
-11.847386 1.8952211 -1.7485521 93 32
-12.403011 1.3166928 -1.708191 111.3 34
-19.180502 7.2862601 -0.54716957 214 48
-19.152475 6.1075659 -0.3231082 101.15 49
-14.456716 5.8230596 -1.1859232 248.14999 42
-1.3585638 0.49046493 0.097411111 21 43
-19.133862 4.8727551 -0.14960246 207.39999 50
-20.054708 3.9816465 0.019254714 200.8 51
-19.193335 5.3205838 -1.2337115 175.10001 44
-14.208589 3.1431894 -0.70520782 58.600002 45
-24.021839 3.3496444 0.16515563 122.64999 52
-23.189373 1.9547389 0.40775907 132.95999 53
-14.23018 2.278363 -0.57627022 39.400002 46
-1.5055521 0.18279402 0.14206582 1 47
-47.02383 17.821741 3.9293916 234.25 60
-1.4100021 0.47339368 0.32050854 1 61
-26.603708 10.735288 0.75308591 165.5 54
-32.837914 11.147891 1.1674706 137.3 55
-1.3494225 0.31744912 0.32422042 1 62
-1.4663706 0.31758028 0.34714267 1 63
-46.866859 13.084068 1.950966 255 56
-1.4026467 0.33439445 0.26624531 1 57
-4.7891154 1.8542951 -1.9377146 111 4
-5.0121551 1.6585399 -1.9485999 102.64 5
-10.134463 1.6153505 -1.8607748 99 26
-10.429293 1.0899974 -1.8191643 75 27
-5.2184939 1.3355178 -1.9421934 151.48 6
-5.4438176 1.0955896 -1.9488108 113.225 7
-4.4870114 1.2447313 -1.9422754 17.9 0
-4.5679045 1.029655 -1.8994777 102.5 1
-5.6845956 0.74578404 -1.956794 98.099998 8
-5.8917432 0.46587759 -1.9496419 91 9
-4.7805548 0.72786748 -1.9168167 101.75 2
-4.9599967 0.49207714 -1.9140844 96 3
-7.1296377 2.7518806 -2.0550601 141.8 16
-7.6790171 2.5054271 -2.1126504 104.3 17
-5.7709236 2.3784876 -2.0063055 123 10
-6.0593262 2.1348314 -2.0135844 103.4 11
-7.8428645 2.0169854 -2.0560429 121.9 18
-8.1556921 1.640124 -2.0344489 100.45 19
-6.3750978 1.7854086 -2.0300105 121 12
-6.7045236 1.5022936 -2.0568712 126.60001 13
-8.429595 1.1463 -1.993963 79 20
-8.6750116 0.72752023 -1.9465865 64 21
-7.0977044 1.1082145 -2.0743759 102.35 14
-7.3594427 0.7543065 -2.0635829 110.85001 15
-10.878357 4.1562409 -1.9128866 111.8 29
-11.277099 3.6371071 -1.8614334 109.9 31
-8.7823801 3.5893192 -2.0369761 100.5 22
-9.0475168 3.1398358 -2.0009999 102.48 23
-11.750565 3.0164249 -1.8053968 83.199997 33
-12.320143 2.4928114 -1.7661533 92.5 35
-9.3795061 2.6273727 -1.9486804 123.5 24
-9.7120285 2.1660833 -1.9105546 106.225 25
-13.242946 5.1108422 -1.8079963 138 36
-13.938583 4.5608344 -1.7758031 108.225 37
-49.054043 8.1216917 2.9108388 154 58
-23.457283 2.6152213 1.6741291 225.5 59
-14.820512 3.8907254 -1.7288376 98.599998 38
-15.857804 3.2675028 -1.6943816 154 39
-10.955105 3.0935011 -1.8472209 112.2 28
-11.484263 2.6368611 -1.8063326 90.199997 30
-15.872072 2.3198528 -1.5404164 87 40
-14.18858 1.2871257 -1.2092116 73.849998 41
-11.839134 1.9702798 -1.7492001 124 32
-12.406281 1.3958993 -1.7100246 110.3 34
-19.182777 7.4254513 -0.54908562 225 48
-19.128935 6.2327204 -0.32353121 145.14999 49
-14.449309 5.9259224 -1.1887857 145.79999 42
-1.3554553 0.4989914 0.097411111 20 43
-19.145414 5.0040617 -0.15039901 216.39999 50
-19.931311 4.0876117 0.020174101 172.8 51
-19.195969 5.4514771 -1.2364632 171.10001 44
-14.206081 3.2363625 -0.70633948 58.600002 45
-23.535313 3.4321821 0.16596061 110.35 52
-22.608925 2.0495951 0.40281644 151 53
-14.22149 2.3687243 -0.57659745 39.400002 46
-14.226232 1.5968223 -0.43138117 52.700001 47
-46.896046 18.111095 3.9282088 210.25 60
-1.4069999 0.48224372 0.32050854 1 61
-26.561615 10.912895 0.75362051 165.5 54
-27.499205 9.5330296 1.0127181 106.60001 55
-1.3474011 0.3259216 0.32422042 1 62
-1.4643462 0.32678759 0.34714267 1 63
-52.376888 14.980944 2.1598396 255 56
-87.283211 19.754416 4.0895281 206.2 57
-4.7808046 1.8857245 -1.9392347 110 4
-4.9998736 1.6894144 -1.9478546 105.64 5
-10.139598 1.6816041 -1.8638499 97 26
-10.424192 1.1557175 -1.8195329 75 27
-5.2243881 1.3721336 -1.9480349 97.479996 6
-5.4459829 1.1316309 -1.9523742 113.225 7
-4.4598737 1.2673193 -1.9331564 17.9 0
-4.5649109 1.0591427 -1.9010994 99.5 1
-5.6797972 0.78148711 -1.956794 98.099998 8
-5.8736854 0.50167197 -1.9442494 100 9
-4.7668309 0.75640345 -1.9128458 97.75 2
-4.9549713 0.52304822 -1.9133117 97 3
-7.1032786 2.7930779 -2.052278 144.8 16
-7.6740942 2.5572436 -2.1158972 98.300003 17
-5.7576032 2.4154384 -2.0069625 123 10
-6.0440078 2.1722283 -2.0129423 105.4 11
-7.8337641 2.0672204 -2.0570974 123.9 18
-8.1584892 1.694047 -2.0380132 104.45 19
-6.3491702 1.8211846 -2.0249791 125 12
-6.694952 1.5443902 -2.0568712 110.60001 13
-8.4279833 1.2000803 -1.9954324 85 20
-8.693511 0.7840395 -1.9522146 64 21
-7.1000195 1.1543555 -2.0773468 102.35 14
-7.3507481 0.8001315 -2.0624318 118.85001 15
-10.863029 4.2288213 -1.9149773 103.8 29
-11.257771 3.7091179 -1.8621017 86.900002 31
-8.795598 3.6595006 -2.0459702 116.5 22
-9.0276098 3.1966219 -2.0009999 100.48 23
-11.769547 3.1003385 -1.8117492 92.199997 33
-12.337153 2.5769777 -1.7712646 91.5 35
-9.3722029 2.6889756 -1.9507878 124.5 24
-9.7115965 2.2300971 -1.9133937 104.225 25
-13.221621 5.1983137 -1.8096926 141 36
-13.937863 4.6576924 -1.7798451 106.225 37
-48.657654 8.3703079 2.8918059 154 58
-23.482021 2.7674117 1.6767428 173.5 59
-14.826413 3.9920714 -1.7328699 98.199997 38
-14.303576 3.0436351 -1.5094217 85 39
-10.95812 3.1688819 -1.8515155 105.2 28
-11.469389 2.7094135 -1.8066719 88.199997 30
-15.82378 2.4143794 -1.536716 80 40
-14.211912 1.3792653 -1.2123942 73.849998 41
-11.842074 2.0473499 -1.7517924 90 32
-12.401192 1.4742788 -1.7106357 111.3 34
-19.174772 7.5612774 -0.55063319 227 48
-19.150126 6.3729076 -0.32522327 116.6 49
-1.3768448 0.54930007 0.080768809 21 42
-15.249915 5.4395609 -1.0829947 52.299999 43
-19.138697 5.1310186 -0.15086974 212.39999 50
-19.778025 4.1860065 0.021369323 198.45001 51
-19.188143 5.5798101 -1.2384907 168.10001 44
-14.210741 3.3314331 -0.7079742 58.600002 45
-22.898476 3.4856918 0.16702592 137.05 52
-22.452263 2.1778696 0.40156779 187 53
-14.194525 2.4559672 -0.57594299 38.600002 46
-1.5031363 0.20169835 0.14206582 1 47
-46.78875 18.408312 3.9288001 210.25 60
-1.4039421 0.49107438 0.32050854 1 61
-26.499901 11.08266 0.75377327 165.5 54
-27.404831 9.6936502 1.011719 170.60001 55
-1.3453269 0.33438089 0.32422042 1 62
-1.4622641 0.33598161 0.34714267 1 63
-51.038944 14.945158 2.1133435 255 56
-87.749001 20.440058 4.1159039 207.09999 57
-4.7688627 1.9157252 -1.9392347 107 4
-4.9944334 1.7225847 -1.9500905 99.639999 5
-10.146233 1.7483218 -1.8673096 113 26
-10.420632 1.2216383 -1.8202708 75 27
-5.2012992 1.4009877 -1.9421934 150.48 6
-5.4460812 1.1673582 -1.9552248 115.225 7
-4.436121 1.290651 -1.9256958 108.9 0
-4.5510435 1.0861449 -1.8978565 103.5 1
-5.6747751 0.8171578 -1.956794 95.099998 8
-5.872293 0.5387302 -1.9449234 82 9
-4.7692218 0.78757364 -1.9160228 99.75 2
-4.9497528 0.55397439 -1.9125392 97 3
-7.0855899 2.8376527 -2.052278 145.8 16
-7.6742988 2.6109383 -2.1207671 122.3 17
-5.7405796 2.4508171 -2.0063055 123 10
-6.0355835 2.2120934 -2.0148683 101.4 11
-7.8243423 2.117419 -2.0581517 120.9 18
-8.1495762 1.7456725 -2.0385222 104.45 19
-6.3412414 1.8621246 -2.026237 129 12
-6.6925306 1.5881536 -2.0593297 113.2 13
-8.4221926 1.2533008 -1.9959221 78 20
-8.66712 0.83665395 -1.9470555 64 21
-7.0926266 1.1989422 -2.0773468 99.349998 14
-7.3493838 0.84672558 -2.0635829 114.85001 15
-10.850878 4.3028302 -1.9177647 112.8 29
-11.26604 3.7903974 -1.8677832 96.900002 31
-8.781394 3.7185149 -2.0482187 110.14999 22
-9.016531 3.256568 -2.0031929 99.479996 23
-11.763171 3.1778586 -1.8139727 103.2 33
-12.334254 2.6573279 -1.7733692 91.5 35
-9.3663683 2.7511439 -1.953316 127.5 24
-9.7126493 2.2946332 -1.9166384 104.225 25
-13.21903 5.269402 -1.8130856 141 36
-13.923268 4.7258582 -1.7809229 105.225 37
-48.611774 8.5984707 2.8914797 154 58
-23.470699 2.878283 1.6768672 176.5 59
-14.82656 4.0671787 -1.7353901 97.199997 38
-15.884987 3.4554977 -1.7021176 154 39
-10.95061 3.2227271 -1.8529472 108.2 28
-11.460329 2.7643499 -1.8073506 124.2 30
-14.231662 2.2375028 -1.3614994 49 40
-14.211194 1.4468187 -1.212991 73.849998 41
-11.851719 2.1066296 -1.7550327 126 32
-12.40784 1.5343733 -1.7127749 109.3 34
-19.179731 7.6679292 -0.55225444 204 48
-19.148304 6.4726501 -0.32601637 151.60001 49
-14.482277 6.1265135 -1.1984471 110.8 42
-14.942762 5.4100251 -1.0590578 51.349998 43
-19.141302 5.2285666 -0.15137662 216.39999 50
-19.652502 4.2564416 0.022362277 168.45001 51
-19.211349 5.6849542 -1.2422563 171.10001 44
-14.220131 3.4043617 -0.70960891 58.600002 45
-22.091621 3.4685593 0.16839612 139.75 52
-24.592817 2.5000391 0.42031509 175.36 53
-14.214241 2.5284853 -0.57768822 39.400002 46
-1.502169 0.20877975 0.14206582 1 47
-32.6618 13.019941 2.8081341 154.90001 60
-1.4016124 0.49768513 0.32050854 1 61
-26.452902 11.209765 0.75388783 165.5 54
-27.377665 9.8294287 1.012274 171.60001 55
-1.3437361 0.34071714 0.32422042 1 62
-1.4606644 0.34286892 0.34714267 1 63
-50.84536 15.14893 2.1087511 255 56
-1.3966596 0.35857952 0.26624531 1 57
-4.7597814 1.9381775 -1.9392347 108 4
-4.9845047 1.7454973 -1.949345 100.64 5
-10.132085 1.7950751 -1.8661563 98 26
-10.432325 1.2728316 -1.82359 75 27
-5.2125711 1.4304978 -1.9494954 96.479996 6
-5.4332108 1.1914434 -1.9523742 112.225 7
-4.4108238 1.3057507 -1.9165767 117.9 0
-4.5512099 1.1088486 -1.9002886 99.5 1
-5.681983 0.84559828 -1.9609635 100.1 8
-5.8865647 0.56795108 -1.9509902 90 9
-4.7726884 0.8113094 -1.9191995 99.75 2
-4.9525876 0.57790709 -1.9148571 97 3
-7.0685835 2.8695552 -2.0511653 123.8 16
-7.6728401 2.6508121 -2.1240141 99.300003 17
-5.7393503 2.4823854 -2.0102482 124 10
-6.0162015 2.237247 -2.0116582 105.4 11
-7.8254256 2.1573803 -2.0613143 122.9 18
-8.1544924 1.7869153 -2.0420866 104.45 19
-6.3378463 1.8936394 -2.0281239 125 12
-6.6720123 1.616587 -2.055027 110.60001 13
-8.4296036 1.2950792 -1.9993501 89 20
-8.6998453 0.88110197 -1.9559666 64 21
-7.0981798 1.2343572 -2.0809119 102.35 14
-7.3605309 0.88312268 -2.0681877 121.85001 15
-10.845084 4.3598275 -1.9205523 104.8 29
-11.26299 3.848515 -1.8704566 110 31
-8.7798719 3.7668154 -2.0522661 111.14999 22
-9.0157566 3.3043556 -2.0067024 99.479996 23
-11.74426 3.2322021 -1.8133373 85.199997 33
-12.33705 2.7187974 -1.7757747 92.5 35
-9.3682737 2.7997715 -1.9566877 122.5 24
-9.7074432 2.3417423 -1.917855 106.225 25
-13.214992 5.3643217 -1.8176091 137 36
-13.917661 4.8216357 -1.784426 105.225 37
-48.49197 8.8918085 2.8878903 153 58
-23.555111 3.0388603 1.6833391 204.5 59
-14.817896 4.1651144 -1.7376581 94.199997 38
-15.905617 3.5647233 -1.7072749 108 39
-10.947092 3.2966111 -1.8561683 103.2 28
-11.454218 2.8391201 -1.8093865 80.199997 30
-14.321279 2.3440831 -1.3730354 50 40
-14.205783 1.5364996 -1.2133889 73.849998 41
-11.849889 2.1832228 -1.7569768 91 32
-12.423443 1.6155626 -1.7167479 112.3 34
-19.181131 7.8086934 -0.55424422 218 48
-19.15453 6.6090741 -0.32733828 115.6 49
-14.40876 6.202363 -1.1950477 102.8 42
-14.824265 5.4728708 -1.0518768 51.349998 43
-19.14465 5.3590178 -0.15206458 207.39999 50
-19.494555 4.3508172 0.023594245 204.10001 51
-19.209602 5.8159957 -1.244863 169.10001 44
-14.223668 3.4997947 -0.71124351 58.600002 45
-21.321463 3.4841485 0.16969435 141.8 52
-24.141117 2.6079311 0.41651702 155.88 53
-14.221634 2.6221313 -0.57899702 39.400002 46
-1.5008276 0.2182138 0.14206582 1 47
-32.570107 13.22114 2.8073945 177.90001 60
-1.3984579 0.50648165 0.32050854 1 61
-26.013016 11.216269 0.7462123 163.75 54
-27.32288 10.003991 1.0124961 179.60001 55
-1.3415688 0.3491531 0.32422042 1 62
-1.4584816 0.35203949 0.34714267 1 63
-49.338425 15.037345 2.0557973 255 56
-1.3943791 0.36734769 0.26624531 1 57
-4.7560368 1.9716302 -1.9430358 108 4
-4.9769416 1.7780122 -1.9508358 100.64 5
-10.149549 1.8640908 -1.8719223 110 26
-10.429973 1.3390892 -1.8246965 75 27
-5.1891613 1.459119 -1.9436539 151.48 6
-5.4292674 1.2263632 -1.9537995 110.225 7
-4.3938379 1.3307509 -1.9124321 112.9 0
-4.538826 1.1361197 -1.8978565 100.5 1
-5.6784101 0.88157755 -1.9616585 98.099998 8
-5.866015 0.60326582 -1.9449234 102 9
-4.7566624 0.83930832 -1.9144342 101.75 2
-4.9506912 0.60922861 -1.9156299 97 3
-7.0415502 2.9102116 -2.0483832 149.8 16
-7.6614876 2.7008715 -2.1256375 126.3 17
-5.713285 2.5137889 -2.0063055 119 10
-6.0144439 2.2796519 -2.0161524 105.4 11
-7.8191376 2.2086267 -2.0634232 122.9 18
-8.1487694 1.8393749 -2.0436144 108.45 19
-6.3276362 1.9339846 -2.0287526 124 12
-6.6580267 1.6575699 -2.053798 110.60001 13
-8.4155588 1.34708 -1.9978809 67 20
-8.6941366 0.93574566 -1.9559666 64 21
-7.0902843 1.2789307 -2.0809119 103.35 14
-7.3643436 0.93051863 -2.0710654 121.85001 15
-10.832047 4.4338822 -1.9233396 112.8 29
-11.255358 3.9250116 -1.8734642 90 31
-8.7649517 3.8258276 -2.0545146 106.14999 22
-9.0076256 3.3656824 -2.0097728 99.559998 23
-11.761707 3.3167272 -1.81969 91.199997 33
-12.327439 2.797992 -1.7769773 91.5 35
-9.356102 2.8603067 -1.9579518 125.5 24
-9.7077551 2.4064183 -1.9210997 109.225 25
-13.202968 5.4563632 -1.821002 139 36
-13.900178 4.9135895 -1.7863122 105.225 37
-67.782341 12.880319 3.9604821 197 58
-23.488071 3.1804266 1.6803521 173.5 59
-14.814301 4.2647624 -1.7406822 95.199997 38
-15.898393 3.6681392 -1.7091501 116 39
-10.944954 3.3711648 -1.8597474 106.2 28
-11.460999 2.9173 -1.8137977 88.199997 30
-14.306269 2.4340208 -1.3730354 94 40
-14.197824 1.6259507 -1.2135878 73.849998 41
-11.845628 2.2595055 -1.758597 124 32
-12.420883 1.6946423 -1.7179701 109.3 34
-19.174133 7.946713 -0.5559392 222 48
-19.140923 6.7392187 -0.32813138 152.60001 49
-14.415089 6.3128262 -1.1995205 99.799995 42
-14.714903 5.5379424 -1.0454936 59.399998 43
-19.143263 5.488615 -0.15268011 204.39999 50
-19.3713 4.4513998 0.024495244 175.10001 51
-19.212679 5.9490223 -1.2479044 169.10001 44
-14.133636 3.5720992 -0.70684254 58.600002 45
-20.7866 3.5303473 0.17058498 145.14999 52
-23.760597 2.7183607 0.41334337 160.92 53
-1.3960739 0.24260741 0.1334371 1 46
-1.499427 0.22763954 0.14206582 1 47
-32.495609 13.429343 2.8081341 209.90001 60
-1.3952479 0.51525849 0.32050854 1 61
-25.026793 10.977023 0.72711903 158.5 54
-27.276344 10.181746 1.0129957 150.60001 55
-1.3393486 0.35757565 0.32422042 1 62
-1.4562407 0.36119658 0.34714267 1 63
-33.773823 10.517388 1.4740225 223.5 56
-88.46804 22.225468 4.1644907 208 57
-4.7316489 1.9963803 -1.9377146 108 4
-4.9604306 1.8073682 -1.9485999 96.639999 5
-10.147273 1.9296837 -1.8738444 110 26
-10.438892 1.406917 -1.828016 75 27
-5.195971 1.4964098 -1.9502255 99.479996 6
-5.4214549 1.2604524 -1.9537995 115.225 7
-4.3923326 1.3605257 -1.915748 112.9 0
-4.5315981 1.1646161 -1.8978565 103.5 1
-5.6672091 0.91631591 -1.9595737 99.099998 8
-5.8658533 0.64050382 -1.9462714 84 9
-4.7549019 0.86985904 -1.9160228 97.75 2
-4.9412732 0.63964111 -1.9133117 96 3
-7.0178213 2.9521449 -2.0467141 128.8 16
-7.6516228 2.7515402 -2.1278019 100.3 17
-5.6973777 2.5496373 -2.0063055 119 10
-6.000001 2.3173974 -2.0161524 120.4 11
-7.8088088 2.2587967 -2.0644774 125.9 18
-8.1370516 1.8905392 -2.0436144 103.45 19
-6.3135505 1.9731313 -2.0281239 117 12
-6.6604004 1.7026219 -2.0581005 113.60001 13
-8.4222231 1.4025252 -2.0017989 89 20
-8.6880865 0.9903546 -1.9559666 64 21
-7.0858598 1.3241708 -2.0821002 103.35 14
-7.3621502 0.97726309 -2.0722165 123.85001 15
-10.822135 4.5094695 -1.9268239 101.8 29
-11.254643 4.0041943 -1.8778089 97 31
-8.7674246 3.8927588 -2.0612602 120.14999 22
-9.0082045 3.4304876 -2.0150363 104.56 23
-11.748219 3.3927708 -1.8209605 105.13 33
-12.340439 2.8825264 -1.7817882 90.5 35
-9.350996 2.9231546 -1.960902 122.5 24
-9.6867447 2.4659321 -1.9198828 96.224998 25
-13.18666 5.5469232 -1.8238294 139 36
-13.913801 5.0168843 -1.7927796 108.225 37
-67.850937 13.33567 3.9688566 197 58
-23.428093 3.3223839 1.677863 172.5 59
-14.815746 4.366221 -1.7444626 96.199997 38
-15.89823 3.7734277 -1.7119632 118 39
-10.925431 3.4404626 -1.8601053 105.2 28
-11.448166 2.9907365 -1.8148155 124.2 30
-14.273078 2.5207188 -1.3710765 118 40
-14.19128 1.7155975 -1.2139856 73.849998 41
-11.860227 2.3396816 -1.7634573 92 32
-12.427604 1.7751311 -1.7207205 112.3 34
-19.184561 8.0927429 -0.55837107 224 48
-19.164091 6.8829217 -0.32998204 112.6 49
-14.460597 6.4415112 -1.2079293 86.799995 42
-14.717068 5.6445069 -1.0486852 51.349998 43
-19.142921 5.6189704 -0.15333186 205.29999 50
-19.226133 4.5455704 0.025598526 215.10001 51
-19.195833 6.076272 -1.2494977 169.39999 44
-19.169504 4.9635735 -1.0359136 213.20001 45
-20.636009 3.6381547 0.17080763 135.5 52
-23.74106 2.8673623 0.41332603 194.92 53
-1.3945218 0.25137448 0.1334371 1 46
-1.497967 0.2370563 0.14206582 1 47
-32.443668 13.647199 2.8107951 191.25 60
-29.33346 10.488549 2.6953013 109.14999 61
-23.99353 10.702983 0.70695651 153.25 54
-27.226786 10.358603 1.0134398 178.60001 55
-1.3370755 0.36598402 0.32422042 1 62
-1.4539425 0.37033933 0.34714267 1 63
-33.701355 10.727564 1.4738071 255 56
-88.754257 22.891054 4.1836653 208.89999 57
-4.7308846 2.03124 -1.9430358 107 4
-4.9559484 1.8410509 -1.9515809 98.639999 5
-10.148421 1.9960886 -1.8765349 113 26
-10.43374 1.473019 -1.8287537 75 27
-5.1704154 1.524212 -1.9436539 151.48 6
-5.4134278 1.2944918 -1.9537995 118.225 7
-4.3733044 1.3847412 -1.9107741 116.9 0
-4.5312724 1.1948916 -1.9010994 103.5 1
-5.6687322 0.95318365 -1.9623535 100.1 8
-5.8804278 0.67942685 -1.9530122 95 9
-4.7529454 0.90042055 -1.9176109 95.75 2
-4.9371572 0.67067575 -1.9133117 95 3
-7.0044236 2.9984677 -2.0483832 128.8 16
-7.6378016 2.8008766 -2.1288841 100.3 17
-5.6846766 2.5869641 -2.0076199 123 10
-5.9835567 2.3543646 -2.0155103 108.4 11
-7.8147902 2.3139064 -2.070276 120.9 18
-8.1419544 1.9456221 -2.0481968 103.45 19
-6.2974153 2.0115921 -2.026866 119 12
-6.6385145 1.7415812 -2.0544126 110.60001 13
-8.4132442 1.4554162 -2.0017989 70 20
-8.7029324 1.0474168 -1.9611257 64 21
-7.0867682 1.3705133 -2.0850711 106.275 14
-7.3634562 1.0245311 -2.0745192 120.85001 15
-10.80989 4.5843353 -1.9299598 110.8 29
-11.227407 4.0741625 -1.8774744 108 31
-8.733922 3.9437354 -2.0590117 99.149994 22
-8.9955769 3.490525 -2.0172296 111.56 23
-11.732347 3.4682126 -1.8219132 84.130005 33
-12.333624 2.9627545 -1.7835921 92.75 35
-9.3529139 2.9884512 -1.9655378 121 24
-9.6881256 2.5311592 -1.9235332 93.224998 25
-13.160642 5.6335773 -1.825243 135 36
-13.893172 5.1082897 -1.7943963 107.225 37
-67.370506 13.681281 3.9468873 196 58
-23.450203 3.4759078 1.6806011 159.5 59
-14.803208 4.4638295 -1.7464786 98.199997 38
-15.918605 3.8839993 -1.7173549 116 39
-10.922318 3.5151103 -1.8636842 102.2 28
-11.438674 3.0651364 -1.8165121 82.199997 30
-14.286282 2.6157703 -1.3743414 114 40
-14.199967 1.807204 -1.2159748 73.849998 41
-11.847227 2.4145517 -1.7637813 123 32
-12.445538 1.8574947 -1.7253046 110.3 34
-19.164541 8.2265596 -0.5596239 227 48
-19.13549 7.0086751 -0.330405 144.60001 49
-14.699061 6.6592822 -1.2354816 88.449997 42
-14.426757 5.6378765 -1.0268229 50.399998 43
-19.141697 5.7495327 -0.15398358 213.29999 50
-19.123325 4.6484256 0.026297271 194.75 51
-19.2066 6.2127843 -1.2532631 170.39999 44
-19.213203 5.1038051 -1.0408176 156.20001 45
-20.484892 3.7442057 0.17103028 123.5 52
-23.75631 3.0207229 0.41362083 199.92 53
-14.199023 2.8957603 -0.58063304 39.400002 46
-1.496448 0.24646333 0.14206582 1 47
-46.187435 19.782961 3.9262867 218.25 60
-29.325058 10.693769 2.7002487 109.14999 61
-23.119455 10.486772 0.69003981 148 54
-27.185406 10.538838 1.0141613 151.60001 55
-1.3347495 0.37437764 0.32422042 1 62
-1.4515868 0.37946716 0.34714267 1 63
-33.646595 10.943437 1.4743093 255 56
-89.068459 23.569775 4.2043152 208.89999 57
-4.7011151 2.0534334 -1.9354341 107 4
-4.9425449 1.8715043 -1.9508358 102.64 5
-10.149137 2.062582 -1.8792257 113 26
-10.453459 1.542778 -1.834286 75 27
-5.1803169 1.5626768 -1.951686 102.48 6
-5.4088206 1.3293536 -1.9552248 112.225 7
-4.3679752 1.4133319 -1.9124321 95.900002 0
-4.5360484 1.2266107 -1.9067745 99.5 1
-5.662631 0.98878145 -1.9623535 98.099998 8
-5.8760428 0.71636015 -1.9530122 94 9
-4.7525926 0.93135369 -1.9199936 95.75 2
-4.9310179 0.70143241 -1.9125392 97 3
-6.9784112 3.039325 -2.0461576 131.8 16
-7.4774084 2.796 -2.0861347 87.300003 17
-5.6683111 2.6226301 -2.0076199 120 10
-5.9809737 2.396795 -2.0200043 110.52 11
-7.8056326 2.3646572 -2.0718577 120.9 18
-8.1389685 1.9990171 -2.0507429 105.45 19
-6.2864552 2.0517154 -2.0274947 124 12
-6.6458378 1.788132 -2.060559 113.2 13
-8.4306402 1.5131249 -2.0086551 78 20
-8.6942511 1.101838 -1.9606568 64 21
-7.0780177 1.4150126 -2.0850711 104.275 14
-7.3606668 1.0713141 -2.0756702 124.85001 15
-10.788099 4.6553001 -1.9313533 105.4 29
-11.218246 4.1507463 -1.8804826 90 31
-8.7390432 4.0124383 -2.0666568 104.14999 22
-8.9880018 3.5526745 -2.0207386 112.56 23
-11.736768 3.5499172 -1.82636 95.130005 33
-12.339736 3.0462983 -1.787501 93.75 35
-9.3432379 3.050215 -1.9676449 122 24
-9.6814947 2.5944896 -1.925561 91.224998 25
-13.144936 5.7248902 -1.8283529 138 36
-13.883085 5.2037907 -1.79763 108.225 37
-67.695595 14.190925 3.9698358 197 58
-48.800755 7.5186687 3.281162 237 59
-14.801398 4.5649843 -1.7500067 98.199997 38
-15.918943 3.9901814 -1.7204025 113 39
-10.916826 3.5892375 -1.8669052 103.2 28
-11.45152 3.1457524 -1.8222804 88.199997 30
-16.536598 3.139514 -1.6270452 108 40
-14.2199 1.900551 -1.2191575 73.849998 41
-11.860778 2.4950988 -1.7686417 93 32
-12.439482 1.9365565 -1.7262214 111.3 34
-19.171055 8.3724833 -0.56198215 221 48
-19.152914 7.1517706 -0.33214992 100.6 49
-14.508681 6.68293 -1.220811 116.45 42
-14.472602 5.7607164 -1.0338444 177.39999 43
-19.137678 5.8797178 -0.15459912 203.29999 50
-19.126738 4.7766852 0.025984675 187.10001 51
-19.201263 6.3446507 -1.25587 167.39999 44
-19.190388 5.227036 -1.0414463 190.20001 45
-20.323439 3.8466346 0.17127006 144.85001 52
-23.752722 3.1720307 0.41375959 192.39999 53
-1.391253 0.26887816 0.1334371 1 46
-1.4948698 0.25586104 0.14206582 1 47
-46.0933 20.086338 3.9288001 210.25 60
-1.3852881 0.54146528 0.32050854 1 61
-23.036774 10.624277 0.68969619 148 54
-27.127951 10.713105 1.0144389 180.60001 55
-1.3323709 0.3827568 0.32422042 1 62
-1.4491739 0.38858032 0.34714267 1 63
-33.592342 11.159682 1.4748833 255 56
-1.3847071 0.40227279 0.26624531 1 57
-4.7033 2.0897679 -1.9422758 107 4
-4.9324226 1.903182 -1.9515809 100.64 5
-10.149415 2.1291649 -1.8819165 115 26
-10.439672 1.6078404 -1.8335485 75 27
-5.1632895 1.5929651 -1.9487652 101.48 6
-5.407618 1.3651083 -1.9580758 115.225 7
-4.3555584 1.4395869 -1.9107741 128.89999 0
-4.5070767 1.2493442 -1.8970456 98.5 1
-5.650775 1.023314 -1.9602687 98.099998 8
-5.8564763 0.75141525 -1.9476197 108 9
-4.7466474 0.96119696 -1.9199936 94.75 2
-4.9429474 0.73475677 -1.9194932 96 3
-6.9574237 3.0823278 -2.0456014 131.8 16
-7.3335958 2.7953408 -2.0482554 112.25 17
-5.6534266 2.6590047 -2.0082767 121 10
-5.9763365 2.4385791 -2.0238564 115.52 11
-7.7961435 2.4153855 -2.0734391 123.9 18
-8.1224928 2.0491819 -2.0497243 104.45 19
-6.2662444 2.0887444 -2.0249791 125 12
-6.6179419 1.8253624 -2.055027 110.60001 13
-8.4171553 1.5653461 -2.0076754 87 20
-8.6852264 1.1561934 -1.9601876 64 21
-7.0689869 1.4594574 -2.0850711 105.275 14
-7.3556848 1.1178229 -2.0762458 122.85001 15
-10.78566 4.7349277 -1.9365799 112.4 29
-11.227027 4.2342963 -1.8868319 97 31
-8.727767 4.0739007 -2.0702543 117.14999 22
-8.9836226 3.6163166 -2.0251253 119.56 23
-11.740625 3.6318176 -1.8308067 103.13 33
-12.337609 3.1281097 -1.7902069 92.75 35
-9.3312988 3.1113536 -1.9693305 126 24
-9.6839018 2.660409 -1.9296167 102.225 25
-13.139534 5.7963986 -1.8317459 137 36
-13.873238 5.2747626 -1.7997855 106.225 37
-67.579163 14.49928 3.9671166 197 58
-48.754925 7.7469888 3.2805398 229 59
-14.815673 4.6460228 -1.754795 95.199997 38
-15.903813 4.0661306 -1.7208713 151 39
-10.910981 3.644407 -1.8690526 105.2 28
-11.427072 3.1970465 -1.8205841 125.2 30
-14.123998 2.7466488 -1.3595405 193 40
-14.173323 1.9624211 -1.215378 73.849998 41
-11.852745 2.5518026 -1.7692899 124 32
-12.465357 2.0007193 -1.7317221 112.6 34
-1.2470604 0.52504307 0.15948473 20 48
-19.14706 7.2525339 -0.33294308 148.05 49
-14.462596 6.7444663 -1.2193797 88.449997 42
-14.456393 5.8333092 -1.0348018 101.39999 43
-19.155548 5.9842057 -0.15546809 216.29999 50
-19.152479 4.8790417 0.025524989 186.10001 51
-19.220297 6.4516296 -1.2596354 165.39999 44
-19.223265 5.3333426 -1.0452186 156.39999 45
-20.197128 3.9212606 0.17145845 122.85 52
-23.957443 3.3141084 0.41568461 170.39999 53
-1.3899705 0.27543125 0.1334371 1 46
-1.4936476 0.26290247 0.14206582 1 47
-46.014545 20.310579 3.9301307 210.25 60
-1.3827212 0.54798716 0.32050854 1 61
-22.975588 10.727629 0.68946707 174 54
-27.097589 10.848978 1.0150495 144.60001 55
-1.3305523 0.38903108 0.32422042 1 62
-1.4473268 0.39540499 0.34714267 1 63
-33.548843 11.321058 1.4752421 251.25 56
-89.241119 24.668417 4.22401 209.79999 57
-4.6900344 2.1103735 -1.9407554 107 4
-4.9164729 1.923733 -1.9485999 108.64 5
-10.123926 2.1736343 -1.8788414 102 26
-10.449457 1.6597499 -1.8368678 77 27
-5.1645951 1.6201078 -1.9524161 103.48 6
-5.3993125 1.390118 -1.9573629 112.225 7
-4.3538928 1.4618629 -1.9132611 102.9 0
-4.5099506 1.2730038 -1.9010994 105.5 1
-5.6477323 1.050282 -1.9609635 98.099998 8
-5.8678112 0.78092617 -1.9530122 75 9
-4.7456551 0.98431891 -1.9215822 95.75 2
-4.9412556 0.75831187 -1.9202659 113 3
-6.9498215 3.1182487 -2.047827 127.8 16
-7.3203416 2.8298681 -2.0482554 121.25 17
-5.6408343 2.6856163 -2.0082767 120 10
-5.9560118 2.4631302 -2.0206463 110.52 11
-7.8012199 2.4573662 -2.0781837 111.9 18
-8.1296177 2.0917203 -2.054307 105.45 19
-6.2617197 2.1200972 -2.026866 125 12
-6.6092663 1.856528 -2.055027 110.60001 13
-8.4115896 1.6053623 -2.0081654 73 20
-8.7105112 1.2012671 -1.9676918 64 21
-7.060164 1.4923509 -2.0844769 108.275 14
-7.3541222 1.1530532 -2.0773969 121.85001 15
-10.76862 4.7881126 -1.9376252 105.4 29
-11.219851 4.292058 -1.8891712 113 31
-8.7031937 4.1124716 -2.0689054 99.149994 22
-8.9628649 3.6571453 -2.0242481 97.559998 23
-11.719615 3.68591 -1.8301713 84.130005 33
-12.336139 3.189651 -1.7923117 90.75 35
-9.3405857 3.1635082 -1.9748092 128 24
-9.6731443 2.7065356 -1.9300222 102.225 25
-13.142564 5.8967452 -1.837966 134 36
-13.858314 5.3689547 -1.8024801 105.225 37
-68.058014 15.050162 3.9989831 198 58
-48.801792 8.0690794 3.2866383 230.5 59
-14.812625 4.7475433 -1.7583232 95.199997 38
-15.922157 4.1775017 -1.726263 109 39
-10.910198 3.7205629 -1.8733473 103.2 28
-11.438989 3.2779422 -1.8263524 82.199997 30
-1.3228277 0.24184093 0.068529919 40 40
-14.564569 2.1091933 -1.2561563 76.949997 41
-11.869215 2.6335635 -1.7747982 94 32
-12.452539 2.0790026 -1.7317221 113.6 34
-1.2437369 0.53286839 0.15948473 20 48
-19.158962 7.3949404 -0.33458221 117.05 49
-14.463101 6.8557534 -1.2236736 88.449997 42
-14.439757 5.9323273 -1.0365572 99.399994 43
-19.148035 6.1142178 -0.15604742 209.29999 50
-19.142738 5.0048223 0.025322706 189.10001 51
-19.20956 6.5826526 -1.2619526 176.39999 44
-19.197058 5.4561944 -1.0457217 185.39999 45
-20.054468 4.0243278 0.17166398 150.2 52
-23.447186 3.3943367 0.41140103 165.92 53
-1.3882124 0.28415933 0.1334371 1 46
-1.4919662 0.27228224 0.14206582 1 47
-45.873291 20.593575 3.9290957 210.25 60
-1.3792508 0.55666441 0.32050854 1 61
-23.342888 11.078847 0.69867003 244.75 54
-27.039999 11.023542 1.0153825 170.60001 55
-1.3280817 0.3973836 0.32422042 1 62
-1.4448138 0.4044911 0.34714267 1 63
-28.0322 9.6516027 1.2684494 205.75 56
-89.655388 25.390194 4.2497787 210.7 57
-4.675004 2.1390224 -1.9399953 108 4
-4.9042883 1.9545864 -1.9485999 85.639999 5
-10.134967 2.2427776 -1.8838387 100 26
-10.456285 1.7282161 -1.8401873 77 27
-5.1578546 1.6536802 -1.9538766 101.26 6
-5.3814273 1.4216716 -1.9537995 113.225 7
-4.3463407 1.4897907 -1.91409 104.9 0
-4.5124187 1.3043036 -1.9059639 96.5 1
-5.644702 1.0864731 -1.9623535 99.099998 8
-5.8721194 0.81903934 -1.9563828 96 9
-4.7339983 1.0129364 -1.9191995 102.75 2
-4.9199858 0.78680789 -1.9133117 84 3
-6.9300914 3.1618547 -2.047827 128.8 16
-7.273715 2.8646142 -2.0395973 94.25 17
-5.6272421 2.7226653 -2.0095911 121 10
-5.9334226 2.4975932 -2.0180783 106.52 11
-7.7966323 2.5099165 -2.0813463 110.9 18
-8.1275444 2.1456869 -2.0573621 108.45 19
-6.239315 2.1562636 -2.0237215 128 12
-6.5974712 1.8980188 -2.055027 111.60001 13
-8.4165459 1.6612325 -2.0120831 79 20
-8.6893158 1.2540693 -1.9644088 64 21
-7.0636983 1.5395759 -2.0886362 115.275 14
-7.344841 1.1989361 -2.0768213 120.85001 15
-10.747287 4.8597569 -1.9393673 113.4 29
-11.194501 4.3631821 -1.8895055 89 31
-8.7034988 4.1798 -2.0756509 107.14999 22
-8.970377 3.7260315 -2.0317049 115.56 23
-11.731918 3.7710307 -1.8362064 93.130005 33
-12.3388 3.2731361 -1.7959198 92.75 35
-9.3316021 3.2259967 -1.9773376 126 24
-9.6710196 2.771538 -1.9332669 104.225 25
-13.11785 5.984983 -1.8399451 135 36
-13.846439 5.4646149 -1.8057138 103.225 37
-68.520897 15.604973 4.0301976 199 58
-48.939003 8.4079037 3.2985866 230.5 59
-14.803233 4.8473477 -1.7610955 99.199997 38
-15.928213 4.2861848 -1.7302482 115 39
-10.901462 3.7942493 -1.8762107 102.2 28
-11.438984 3.3558097 -1.8300848 86.199997 30
-16.524639 3.4341383 -1.6320512 138 40
-14.537253 2.1986063 -1.2547638 76.949997 41
-11.844741 2.7063136 -1.7735022 123 32
-12.462609 2.1612086 -1.7353894 109.6 34
-1.2403641 0.54067254 0.15948473 20 48
-19.136318 7.5246558 -0.33526957 152.05 49
-14.466361 6.9690456 -1.2283252 88.449997 42
-14.402196 6.0229383 -1.0365572 110.39999 43
-19.158646 6.2505984 -0.15698881 206.29999 50
-19.14183 5.1332498 0.025028497 178.10001 51
-1.2786003 0.42142397 0.11462557 19 44
-19.198824 5.5872574 -1.0481107 176.39999 45
-19.911312 4.1257572 0.17186952 128.2 52
-22.806345 3.4486978 0.40597278 162.95999 53
-1.3863996 0.29287621 0.1334371 1 46
-1.4902259 0.28165129 0.14206582 1 47
-45.744808 20.882231 3.9292438 210.25 60
-46.964283 18.373791 4.2385974 163.75 61
-23.355621 11.265342 0.70042658 222.5 54
-26.979439 11.197048 1.01566 169.60001 55
-1.3255585 0.40572041 0.32422042 1 62
-1.4422437 0.41356125 0.34714267 1 63
-27.957806 9.822897 1.2679471 215.75 56
-72.956284 21.162107 3.5021448 188.2 57
-4.6614709 2.1683543 -1.9399953 107 4
-4.9039717 1.9901888 -1.9538168 105.64 5
-10.134063 2.3095002 -1.8865292 103 26
-10.451034 1.7948651 -1.8412938 77 27
-5.140296 1.6837034 -1.9509557 103.48 6
-5.3759995 1.4564166 -1.9552248 110.225 7
-4.340323 1.5182918 -1.915748 100.9 0
-4.5006218 1.3316122 -1.9043422 101.5 1
-5.6377635 1.1219187 -1.9623535 99.099998 8
-5.8631268 0.85539192 -1.9550345 93 9
-4.7239594 1.0418514 -1.9176109 96.75 2
-4.9240503 0.81917197 -1.9171753 99 3
-6.918787 3.2094071 -2.0506089 125.8 16
-7.2627296 2.9131038 -2.0417619 114.25 17
-5.6083317 2.7571282 -2.0089338 120 10
-5.914124 2.5333476 -2.0167942 107.4 11
-7.7953548 2.5637238 -2.0855639 105.9 18
-8.1195068 2.1982107 -2.0588896 110.45 19
-6.2345834 2.1986163 -2.026866 136 12
-6.5945535 1.9420888 -2.0581005 115.60001 13
-8.4154367 1.7160492 -2.0145319 90 20
-8.6908817 1.3100624 -1.9667538 64 21
-7.055747 1.5843537 -2.0892303 113.275 14
-7.3484993 1.2469451 -2.0802751 125.8 15
-10.739776 4.9379354 -1.943897 105.4 29
-11.209053 4.450078 -1.8971919 99 31
-8.6910563 4.2412786 -2.0792484 120.14999 22
-8.950388 3.7838314 -2.0325823 100.56 23
-11.732363 3.852731 -1.8403354 104.13 33
-12.333261 3.3547201 -1.7983249 90.75 35
-9.3129883 3.2852209 -1.9777591 125 24
-9.6778622 2.8393533 -1.9385395 103.225 25
-13.101523 6.0773206 -1.8433378 136.5 36
-13.824714 5.5566554 -1.8076001 107.25 37
-67.725487 15.87179 3.9912615 198 58
-48.818394 8.7033424 3.2943549 230.5 59
-14.798814 4.9491138 -1.7646236 93.199997 38
-15.927788 4.3935289 -1.7335302 111 39
-10.88667 3.8659811 -1.878 104.2 28
-11.419563 3.4281769 -1.8304241 124.2 30
-14.341782 3.071141 -1.390013 79 40
-14.198706 2.2393317 -1.2219423 73.849998 41
-11.852468 2.7866058 -1.7777145 93 32
-12.450731 2.2398145 -1.7356951 109.6 34
-1.2369426 0.54845506 0.15948473 20 48
-19.157372 7.6721559 -0.33722597 113.05 49
-14.466982 7.081768 -1.232798 88.449997 42
-14.398949 6.1280847 -1.0395892 97.399994 43
-19.156923 6.3835416 -0.15771298 214.29999 50
-19.138138 5.2613306 0.024752676 173.10001 51
-1.2759273 0.42944908 0.11462557 14 44
-19.197788 5.7179837 -1.0503742 180.39999 45
-19.773548 4.2268047 0.17206477 130.2 52
-21.952385 3.4617429 0.39867157 193.52 53
-1.3845321 0.30158117 0.1334371 1 46
-1.4884269 0.29100877 0.14206582 1 47
-45.636211 21.180161 3.9311659 210.25 60
-32.875465 13.108945 3.0347626 121.74999 61
-23.313097 11.42597 0.70103759 226.5 54
-26.921453 11.371773 1.0160486 165.60001 55
-1.3229834 0.41404086 0.32422042 1 62
-1.439617 0.42261469 0.34714267 1 63
-27.923752 10.008502 1.2690234 218.75 56
-72.613068 21.558155 3.4926875 188.2 57
-4.6460862 2.1968 -1.9392347 109 4
-4.8913708 2.020961 -1.9538168 105.64 5
-10.126992 2.3749382 -1.888067 101 26
-10.453102 1.8628742 -1.8438756 77 27
-5.1260896 1.7147682 -1.9494954 97.479996 6
-5.3649406 1.4896737 -1.9545121 110.225 7
-4.322144 1.5424247 -1.9116029 98.900002 0
-4.4869084 1.3583034 -1.9019101 107.5 1
-5.6361094 1.1584762 -1.9644382 95.099998 8
-5.8501868 0.89111155 -1.9523382 102 9
-4.7280469 1.0740086 -1.9223764 95.75 2
-4.9115291 0.84887487 -1.9140844 95 3
-6.8950167 3.2511642 -2.0494962 150.8 16
-7.237144 2.9557893 -2.0395973 121.25 17
-5.5959578 2.7948642 -2.010905 123 10
-5.9067879 2.5742049 -2.0200043 107.52 11
-7.7882285 2.6157515 -2.0881996 136.89999 18
-8.1111326 2.2507167 -2.0604172 109.45 19
-6.2081594 2.2331972 -2.0224636 139 12
-6.5876946 1.9851106 -2.0599444 119.2 13
-8.3893185 1.7656486 -2.0106139 73 20
-8.6959295 1.3667146 -1.9700369 64 21
-7.0456533 1.6286536 -2.0892303 119.275 14
-7.3424077 1.2934167 -2.0808506 122.8 15
-10.728147 5.0145321 -1.9477296 111.4 29
-11.191852 4.524828 -1.8991972 108 31
-8.664237 4.2958007 -2.0792484 101.14999 22
-8.9246426 3.8392253 -2.0321434 103.56 23
-11.707926 3.9263699 -1.8403354 84.130005 33
-12.319566 3.4342523 -1.7995278 92.75 35
-9.3068666 3.3490043 -1.9811306 124 24
-9.6617088 2.9006617 -1.9389451 105.225 25
-13.086343 6.1705365 -1.8470132 137.5 36
-13.820729 5.6561117 -1.8121811 106.25 37
-88.066139 21.231386 5.1365051 230 58
-1.4425083 0.29218787 0.29423639 20 59
-14.784314 5.0477953 -1.7668917 92.199997 38
-15.907516 4.4956651 -1.7344677 149 39
-10.880651 3.9410484 -1.8815789 105.2 28
-11.426079 3.5084746 -1.8355138 79.199997 30
-16.451075 3.6350331 -1.6287864 197 40
-14.205963 2.3320053 -1.2241305 73.849998 41
-11.836643 2.8614881 -1.7780385 123 32
-12.459736 2.3222961 -1.739362 110.6 34
-1.2334722 0.55621594 0.15948473 20 48
-19.127308 7.7998958 -0.33775473 149.05 49
-14.472099 7.1974411 -1.2378074 88.449997 42
-14.389453 6.2310581 -1.0421425 120.39999 43
-19.150497 6.5154152 -0.15836473 213.29999 50
-19.133587 5.3895669 0.024476871 213.10001 51
-1.2732038 0.43745723 0.11462557 1 44
-19.201595 5.850656 -1.0530148 189.39999 45
-19.631395 4.3254194 0.17226687 135.55 52
-21.221575 3.4841394 0.39244562 176.08 53
-1.38261 0.31027424 0.1334371 1 46
-1.4865689 0.30035484 0.14206582 1 47
-45.507645 21.46903 3.9316092 210.25 60
-32.805382 13.320484 3.0358799 121.74999 61
-23.246216 11.574902 0.70115215 224.5 54
-26.884382 11.555665 1.0171032 164.70001 55
-1.3203558 0.42234501 0.32422042 1 62
-1.436933 0.43165144 0.34714267 1 63
-27.871576 10.187876 1.269454 249.75 56
-72.260124 21.948414 3.4828835 187.29999 57
-4.6421719 2.2308059 -1.9437959 115 4
-4.880291 2.0523648 -1.9545621 103.64 5
-10.123312 2.441309 -1.8903735 100 26
-10.456663 1.9313327 -1.8468261 77 27
-5.1099372 1.745111 -1.9473048 150.48 6
-5.3644738 1.5258669 -1.9580758 110.225 7
-4.322608 1.5733434 -1.9165767 100.9 0
-4.4765358 1.3859369 -1.9010994 105.5 1
-5.6232204 1.1926727 -1.9623535 94.099998 8
-5.8649426 0.93100834 -1.9597533 82 9
-4.7158504 1.1024116 -1.9199936 99.75 2
-4.9151859 0.88129783 -1.917948 97 3
-6.879642 3.2969296 -2.0511653 130.8 16
-7.2166495 3.000469 -2.0390561 114.25 17
-5.5850105 2.8334148 -2.0135334 126 10
-5.8922315 2.6120269 -2.0206463 111.52 11
-7.7844005 2.669054 -2.0918896 111.9 18
-8.1098633 2.3052959 -2.0639815 109.45 19
-6.2011247 2.2748022 -2.0249791 98 12
-6.5678082 2.0242472 -2.0574856 111.60001 13
-8.4083576 1.8249962 -2.0184495 79 20
-8.6890898 1.4216325 -1.9705058 64 21
-7.0297127 1.6715438 -2.0874479 116.275 14
-7.3379064 1.3401986 -2.0820017 126.8 15
-10.71242 5.0894794 -1.9508655 106.4 29
-11.161375 4.5943103 -1.898863 90 31
-8.6596708 4.3616104 -2.0850947 110.14999 22
-8.9236097 3.9053316 -2.0378458 103.56 23
-11.711026 4.0095057 -1.8450997 91.130005 33
-12.320571 3.5180559 -1.8031356 92.75 35
-9.3021441 3.413518 -1.9849234 125 24
-9.6507883 2.9635894 -1.9405675 104.225 25
-13.068722 6.2629428 -1.8504062 137.5 36
-13.799564 5.7489076 -1.8143367 107.25 37
-88.341927 21.886215 5.1595621 231 58
-1.4406441 0.30124542 0.29423639 20 59
-14.778522 5.1497693 -1.77042 95.800003 38
-15.924767 4.6087031 -1.7400939 103 39
-10.868585 4.0141354 -1.8840842 102.2 28
-11.416984 3.5843003 -1.8378892 88.199997 30
-16.53837 3.7636387 -1.6411932 141 40
-14.320545 2.4430718 -1.237259 75.399994 41
-11.839488 2.9410801 -1.7816029 92 32
-12.437134 2.3990536 -1.7381397 109.6 34
-1.2299532 0.56395489 0.15948473 20 48
-19.162909 7.9550743 -0.34018701 116.05 49
-14.462125 7.3062491 -1.2413857 90.099998 42
-14.397491 6.3421617 -1.0462915 92.399994 43
-19.146946 6.6487775 -0.15908889 202.2 50
-19.135872 5.5201612 0.024127498 170.10001 51
-14.839639 5.4995279 -0.93667185 69.899994 44
-19.225464 5.9901066 -1.0570385 150.39999 45
-19.486843 4.4219713 0.17247239 132.55 52
-20.708275 3.5342352 0.38812733 174.60001 53
-1.3806331 0.31895506 0.1334371 1 46
-1.4846526 0.30968904 0.14206582 1 47
-45.389839 21.763163 3.9330876 210.25 60
-32.743164 13.53546 3.0377951 161.75 61
-23.206917 11.737911 0.70187771 224.5 54
-26.82041 11.728348 1.0173807 172.70001 55
-1.3176762 0.43063256 0.32422042 1 62
-1.4341928 0.44067121 0.34714267 1 63
-27.81263 10.364891 1.2696692 217.75 56
-34.430164 10.708843 1.7693216 106.3 57
-4.6264062 2.2591088 -1.9430358 129 4
-4.8741393 2.0858748 -1.9575435 104.64 5
-10.124908 2.5091577 -1.8938329 101 26
-10.467501 2.0013671 -1.8512521 77 27
-5.1076484 1.7802887 -1.9509557 96.479996 6
-5.3547807 1.5595417 -1.9580758 110.225 7
-4.3075299 1.5985428 -1.91409 98.900002 0
-4.4677401 1.4140357 -1.9010994 108.5 1
-5.6229372 1.2296157 -1.9651332 96.099998 8
-5.8589778 0.9678396 -1.9597533 94 9
-4.7088313 1.1320195 -1.9199936 98.75 2
-4.9095521 0.91216254 -1.917948 97 3
-6.8639646 3.3426306 -2.0528345 128.8 16
-7.2154121 3.0531964 -2.0444674 107.25 17
-5.5687737 2.8693221 -2.0141907 124 10
-5.8705149 2.6466818 -2.0187201 105.52 11
-7.78021 2.7224112 -2.0955799 135.89999 18
-8.0970783 2.3567395 -2.0644906 106.45 19
-6.1671782 2.3063269 -2.0180614 137 12
-6.5495086 2.0637777 -2.0556419 113.60001 13
-8.4118547 1.8812214 -2.0223675 88 20
-8.679986 1.4761978 -1.9705058 64 21
-7.0190716 1.7156787 -2.0874479 119.275 14
-7.3368745 1.387674 -2.0843043 126.8 15
-10.699719 5.1661472 -1.9546981 112.4 29
-11.163237 4.6772346 -1.9045442 101 31
-8.6528873 4.4266396 -2.0904913 107.14999 22
-8.9060364 3.9644768 -2.0396004 99.559998 23
-11.717271 4.0941463 -1.8504994 102.13 33
-12.311519 3.5992541 -1.8052405 92.75 35
-9.2951488 3.4774148 -1.9882948 125 24
-9.643198 3.027658 -1.9430008 104.225 25
-13.052232 6.3562441 -1.8540816 137.5 36
-13.790558 5.8470564 -1.8183786 105.25 37
-88.53553 22.52565 5.1782689 231 58
-1.4387228 0.31029141 0.29423639 20 59
-14.775765 5.2532086 -1.7744521 96.800003 38
-15.931696 4.7193336 -1.744548 110 39
-10.850509 4.0851359 -1.8855159 104.2 28
-11.403627 3.6589556 -1.8395858 123.2 30
-16.531811 3.8715858 -1.6431521 130 40
-14.255906 2.524416 -1.2322861 123.39999 41
-11.839888 3.0203314 -1.7848431 125 32
-12.474172 2.4874811 -1.7463911 112.6 34
-1.2263855 0.57167184 0.15948473 20 48
-19.132812 8.0838556 -0.34076864 148.5 49
-14.453119 7.416131 -1.2451428 90.099998 42
-14.391951 6.4479303 -1.0493236 116.35 43
-19.150009 6.7850361 -0.15995784 208.2 50
-19.127672 5.6481824 0.023870066 234.10001 51
-14.890574 5.6252279 -0.94333386 69.899994 44
-19.198862 6.1144056 -1.057793 174.39999 45
-19.361322 4.5214562 0.17264366 131.55 52
-20.597023 3.6486928 0.38734692 134.60001 53
-14.132144 3.6068437 -0.58575916 39.400002 46
-1.4826773 0.31901133 0.14206582 1 47
-45.275501 22.059299 3.9350097 210.25 60
-1.3610849 0.59971273 0.32050854 15 61
-23.145151 11.889903 0.70214498 224.5 54
-26.768116 11.906366 1.0180467 175.70001 55
-29.375959 10.393856 2.9719207 136.96001 62
-1.4313955 0.44967392 0.34714267 1 63
-27.763769 10.545843 1.2703149 251.5 56
-34.346962 10.920131 1.7686273 106.3 57
-4.610467 2.2873025 -1.9422758 99 4
-4.8472943 2.1105986 -1.9515809 103.64 5
-10.108942 2.5727251 -1.8938329 101 26
-10.454719 2.0670977 -1.8512521 77 27
-5.0911069 1.8104492 -1.9487652 142.48 6
-5.3394961 1.5915799 -1.9559376 106.225 7
-4.3041949 1.6281906 -1.9174057 97.900002 0
-4.4761939 1.4476092 -1.9092066 108.5 1
-5.6278934 1.2678645 -1.9699974 94.099998 8
-5.8360662 1.00184 -1.9536865 107 9
-4.7105231 1.1638329 -1.9239647 99.75 2
-4.9109764 0.94434816 -1.9210386 92 3
-6.8393888 3.3839769 -2.0517218 124.8 16
-7.1943154 3.097717 -2.0439265 94.25 17
-5.5539756 2.9060204 -2.0155046 117 10
-5.8589439 2.6858623 -2.0206463 108.52 11
-7.7829146 2.77844 -2.1013784 134.89999 18
-8.1043739 2.4141266 -2.0706007 106.45 19
-6.1507936 2.344348 -2.0174325 137 12
-6.5418525 2.1066186 -2.0574856 115.60001 13
-8.3885384 1.9313931 -2.019429 73 20
-8.6954441 1.535028 -1.9766029 64 21
-7.0118537 1.7606908 -2.0886362 119.275 14
-7.3392963 1.4359133 -2.0877576 124.8 15
-10.684711 5.2419877 -1.9581826 105.4 29
-11.140889 4.7503624 -1.905881 110 31
-8.6369905 4.4872417 -2.0936391 119.14999 22
-8.904088 4.030757 -2.0453029 115.56 23
-11.685738 4.1656871 -1.8495464 84.130005 33
-12.30951 3.6827314 -1.8085479 92.75 35
-9.2858906 3.5406594 -1.9912448 124 24
-9.6389141 3.0929372 -1.9462454 102.225 25
-13.036329 6.4247098 -1.8563435 142.5 36
-13.795652 5.926003 -1.8232292 106.25 37
-88.88456 23.061117 5.2039361 232 58
-1.4372447 0.31706801 0.29423639 20 59
-14.769498 5.3295469 -1.7769723 94.800003 38
-15.91689 4.7966404 -1.7454859 146 39
-10.849504 4.1432848 -1.8890948 103.2 28
-11.406886 3.7193317 -1.8433182 80.199997 30
-16.544308 3.9568958 -1.6466346 141 40
-14.314363 2.6042674 -1.2394472 115.39999 41
-11.840795 3.0801005 -1.7874352 92 32
-12.466187 2.5470219 -1.7470021 110.6 34
-14.667029 7.2400599 -0.39373809 109 48
-19.166229 8.2045259 -0.34283078 114.5 49
-14.472774 7.5126977 -1.2506891 90.099998 42
-14.397742 6.532095 -1.0525151 108.35 43
-19.16296 6.8915048 -0.16082685 214.2 50
-19.148745 5.7525826 0.023410365 180.10001 51
-14.722425 5.6408644 -0.93232703 101.89999 44
-19.202135 6.2152214 -1.0599307 180.39999 45
-19.219223 4.5837216 0.17285605 116.89999 52
-45.557999 8.2599926 0.60745823 226.12 53
-19.176172 5.0002036 -0.87151814 190.8 46
-1.4811577 0.325995 0.14206582 1 47
-45.208603 22.29096 3.9381144 210.25 60
-46.376747 19.759245 4.2370019 163.75 61
-23.10837 12.009005 0.70256501 222.5 54
-26.290468 11.84308 1.0052247 160.5 55
-29.307909 10.525427 2.970149 136.96001 62
-1.4292606 0.4564144 0.34714267 1 63
-27.736139 10.685205 1.271176 220.5 56
-34.314137 11.088001 1.769495 106.3 57
-4.5979881 2.3081658 -1.9415157 124 4
-4.8441019 2.1363804 -1.9545621 102.64 5
-10.108097 2.6233218 -1.8961391 102 26
-10.458355 2.1190429 -1.8538339 77 27
-5.0912609 1.8376238 -1.9524161 95.479996 6
-5.3355184 1.6177926 -1.9573629 109.225 7
-4.284605 1.6438253 -1.9116029 95.900002 0
-4.4519219 1.4630756 -1.9010994 108.5 1
-5.6109023 1.291798 -1.9658279 100.1 8
-5.8461261 1.0318849 -1.9590793 86 9
-4.6996541 1.1846441 -1.9215822 96.75 2
-4.8937902 0.96504861 -1.9156299 95 3
-6.8285103 3.4187679 -2.053391 144.8 16
-7.1884732 3.1354053 -2.0466318 107.25 17
-5.5502148 2.937505 -2.0194473 125 10
-5.8341722 2.7079098 -2.0161524 106.4 11
-7.7824173 2.8197267 -2.1050684 153.05 18
-8.0966129 2.4534018 -2.071619 106.45 19
-6.1449819 2.3753824 -2.0193191 144 12
-6.5246086 2.1350837 -2.055027 121.60001 13
-8.4038658 1.9767489 -2.0257957 84 20
-8.6976814 1.5776951 -1.9789478 64 21
-7.0016308 1.7932343 -2.088042 117.275 14
-7.3399663 1.4719645 -2.0900602 123.8 15
-10.684559 5.3045955 -1.9630604 113.4 29
-11.129252 4.8074794 -1.9078864 92 31
-8.6002455 4.5196934 -2.089592 99.149994 22
-8.8796663 4.0702481 -2.0439868 100.56 23
-11.695665 4.2315216 -1.8546286 93.130005 33
-12.305268 3.7447023 -1.8106525 91.75 35
-9.2800312 3.5886395 -1.9937735 120 24
-9.6335506 3.1413386 -1.9482734 102.225 25
-13.03285 6.5251703 -1.8622808 135.5 36
-13.785406 6.0244207 -1.8272711 105.25 37
-89.156647 23.730705 5.2275372 232 58
-1.4352241 0.32609195 0.29423639 20 59
-14.771078 5.4353161 -1.7817606 93.800003 38
-15.926317 4.9087758 -1.7504088 105 39
-10.832417 4.2149591 -1.8908844 104.1 28
-11.409491 3.7995896 -1.8480687 87 30
-16.540348 4.0660186 -1.6490288 157 40
-14.164687 2.6693323 -1.2259207 215.39999 41
-11.828832 3.1564875 -1.7887315 125 32
-12.469285 2.6293354 -1.7500583 112.6 34
-1.2200255 0.58512187 0.15948473 20 48
-19.139978 8.3359308 -0.34357101 139.5 49
-14.469301 7.626771 -1.2551619 90.099998 42
-14.405332 6.6448941 -1.0568237 90.349998 43
-19.160566 7.0269704 -0.16162343 203.2 50
-19.14856 5.8838949 0.023060992 166.45001 51
-14.603128 5.7004743 -0.92580986 163.60001 44
-19.210102 6.3513494 -1.0630742 183.60001 45
-19.178392 4.7015133 0.1728766 126.89999 52
-45.489479 8.543128 0.60731947 214.12 53
-19.196447 5.1345892 -0.87446296 140.8 46
-1.4790802 0.33529472 0.14206582 1 47
-1.2736322 0.60970247 0.30644599 1 60
-46.258995 20.053408 4.2376399 163.75 61
-23.053673 12.165178 0.70302325 223.5 54
-25.497282 11.679814 0.98329967 161.3 55
-1.310039 0.45333505 0.32422042 1 62
-1.4263648 0.46538541 0.34714267 1 63
-27.670313 10.859992 1.2712477 250.5 56
-34.251381 11.30588 1.769842 106.3 57
-4.5768199 2.3336148 -1.9384747 113 4
-4.8356748 2.1690276 -1.956798 105.64 5
-10.104684 2.6903474 -1.8988299 100 26
-10.46216 2.1882906 -1.8571534 77 27
-5.0708928 1.8663186 -1.9487652 145.48 6
-5.318099 1.6491032 -1.9545121 111.225 7
-4.2708097 1.6693687 -1.9099451 112.9 0
-4.4513235 1.4938786 -1.905153 104.5 1
-5.6063213 1.3279067 -1.9672179 94.099998 8
-5.8543572 1.0712426 -1.9644721 96 9
-4.6938925 1.2146178 -1.9223764 96.75 2
-4.8948679 0.99721265 -1.9187205 96 3
-6.8154421 3.465987 -2.0561728 146.8 16
-7.1598196 3.1766341 -2.0439265 111.25 17
-5.5548921 2.9849324 -2.0286465 164 10
-5.8153272 2.7437112 -2.0155103 105.4 11
-7.7844315 2.8759851 -2.1108673 112.05 18
-8.0884342 2.5064919 -2.0736556 109.45 19
-6.136991 2.416755 -2.0218349 101 12
-6.5110655 2.1760359 -2.055027 129.60001 13
-8.3931627 2.029973 -2.0262852 90 20
-8.6856861 1.6319586 -1.9784788 64 21
-6.9902263 1.8371904 -2.088042 108.275 14
-7.3286953 1.5176706 -2.0894842 117.8 15
-10.652775 5.3725133 -1.9634089 105.4 29
-11.138577 4.8946772 -1.9152383 99.100006 31
