# .PCD v0.7 - Point Cloud Data file format
VERSION 0.7
FIELDS x y z
SIZE 4 4 4
TYPE F F F
COUNT 1 1 1
WIDTH 480
HEIGHT 1
VIEWPOINT 0 0 0 1 0 0 0
POINTS 480
DATA ascii
-1.506911396980285645e+00 6.133779883384704590e-01 4.286397457122802734e+00
-1.501817226409912109e+00 6.826131343841552734e-01 4.280344009399414062e+00
-1.500365138053894043e+00 7.543398737907409668e-01 4.281589984893798828e+00
-1.498563528060913086e+00 8.246693611145019531e-01 4.281424045562744141e+00
-1.484619379043579102e+00 8.915366530418395996e-01 4.254020690917968750e+00
-1.477254033088684082e+00 9.581609964370727539e-01 4.240663528442382812e+00
-1.545355439186096191e+00 6.064323782920837402e-01 4.205456733703613281e+00
-1.539211034774780273e+00 6.746906638145446777e-01 4.194970607757568359e+00
-1.533256888389587402e+00 7.432786226272583008e-01 4.182786464691162109e+00
-1.531352758407592773e+00 8.147791028022766113e-01 4.183730125427246094e+00
-1.526063442230224609e+00 8.840003013610839844e-01 4.176939487457275391e+00
-1.516855120658874512e+00 9.514429569244384766e-01 4.163752555847167969e+00
-1.578274607658386230e+00 5.958054661750793457e-01 4.108249187469482422e+00
-1.571826815605163574e+00 6.652002334594726562e-01 4.099236488342285156e+00
-1.568949341773986816e+00 7.357410192489624023e-01 4.098180770874023438e+00
-1.565509080886840820e+00 8.050525784492492676e-01 4.093471527099609375e+00
-1.565280914306640625e+00 8.762429356575012207e-01 4.097456932067871094e+00
-1.553853273391723633e+00 9.423285126686096191e-01 4.076113700866699219e+00
-1.609325408935546875e+00 5.883255600929260254e-01 4.016099929809570312e+00
-1.609169960021972656e+00 6.580004096031188965e-01 4.018098831176757812e+00
-1.605197787284851074e+00 7.274520397186279297e-01 4.013128757476806641e+00
-1.595092296600341797e+00 7.937620878219604492e-01 3.995613098144531250e+00
-1.592280149459838867e+00 8.636003732681274414e-01 3.992616891860961914e+00
-1.588754653930664062e+00 9.323654174804687500e-01 3.988873720169067383e+00
-1.642804145812988281e+00 5.788271427154541016e-01 3.927330493927001953e+00
-1.636094212532043457e+00 6.474251151084899902e-01 3.915992736816406250e+00
-1.633241415023803711e+00 7.156631946563720703e-01 3.912721872329711914e+00
-1.632870197296142578e+00 7.863026261329650879e-01 3.914752721786499023e+00
-1.628715395927429199e+00 8.549151420593261719e-01 3.909010887145996094e+00
-1.623938679695129395e+00 9.230062961578369141e-01 3.903201103210449219e+00
-1.677798271179199219e+00 5.716975331306457520e-01 3.845984220504760742e+00
-1.672829747200012207e+00 6.397753357887268066e-01 3.837482452392578125e+00
-1.668618917465209961e+00 7.080143690109252930e-01 3.830898523330688477e+00
-1.665358662605285645e+00 7.766459584236145020e-01 3.825854301452636719e+00
-1.659648180007934570e+00 8.444514870643615723e-01 3.816492557525634766e+00
-1.649774551391601562e+00 9.100211858749389648e-01 3.801085472106933594e+00
-1.701014637947082520e+00 5.611019134521484375e-01 3.740225791931152344e+00
-1.699585318565368652e+00 6.292924284934997559e-01 3.738795518875122070e+00
-1.694778084754943848e+00 6.969212293624877930e-01 3.730771541595458984e+00
-1.694603204727172852e+00 7.656940221786499023e-01 3.730943202972412109e+00
-1.690811634063720703e+00 8.340776562690734863e-01 3.726675987243652344e+00
-1.681437849998474121e+00 8.996815681457519531e-01 3.711060523986816406e+00
-1.733995437622070312e+00 5.524141788482666016e-01 3.656204938888549805e+00
-1.728397965431213379e+00 6.207070946693420410e-01 3.647757291793823242e+00
-1.723586082458496094e+00 6.873669028282165527e-01 3.639747858047485352e+00
-1.721757769584655762e+00 7.555396556854248047e-01 3.637595176696777344e+00
-1.715017080307006836e+00 8.211209774017333984e-01 3.625313758850097656e+00
-1.714544415473937988e+00 8.907116055488586426e-01 3.626594543457031250e+00
-1.740554571151733398e+00 1.003305613994598389e-02 4.007841110229492188e+00
-1.704037070274353027e+00 1.311910338699817657e-02 4.100806713104248047e+00
-1.664918303489685059e+00 1.631935685873031616e-02 4.191318035125732422e+00
-1.617981910705566406e+00 1.905698329210281372e-02 4.264301300048828125e+00
-1.571737885475158691e+00 2.135175466537475586e-02 4.346913337707519531e+00
-1.533492207527160645e+00 2.324739657342433929e-02 4.443270683288574219e+00
-1.486056923866271973e+00 2.529486827552318573e-02 4.529353618621826172e+00
-1.429963827133178711e+00 2.790486253798007965e-02 4.587070465087890625e+00
-1.734586715698242188e+00 7.905106246471405029e-02 4.002602100372314453e+00
-1.696198582649230957e+00 8.287867903709411621e-02 4.090723991394042969e+00
-1.648851156234741211e+00 8.601087331771850586e-02 4.163704872131347656e+00
-1.613608121871948242e+00 8.847642689943313599e-02 4.264806270599365234e+00
-1.570474743843078613e+00 9.069175273180007935e-02 4.351258754730224609e+00
-1.520870447158813477e+00 9.368833899497985840e-02 4.421912193298339844e+00
-1.474400401115417480e+00 9.622286260128021240e-02 4.510553836822509766e+00
-1.422953963279724121e+00 9.711267054080963135e-02 4.581501007080078125e+00
-1.736375570297241211e+00 1.486877650022506714e-01 4.010392665863037109e+00
-1.692284584045410156e+00 1.522388905286788940e-01 4.088432312011718750e+00
-1.655140757560729980e+00 1.552490741014480591e-01 4.182365417480468750e+00
-1.607318520545959473e+00 1.581027358770370483e-01 4.258739948272705078e+00
-1.565408706665039062e+00 1.615609228610992432e-01 4.347329139709472656e+00
-1.516602039337158203e+00 1.646326333284378052e-01 4.424485206604003906e+00
-1.470543503761291504e+00 1.667561680078506470e-01 4.507535934448242188e+00
-1.425922632217407227e+00 1.706782132387161255e-01 4.601697444915771484e+00
-1.727260231971740723e+00 2.166139930486679077e-01 3.997156381607055664e+00
-1.687569618225097656e+00 2.207388877868652344e-01 4.083359241485595703e+00
-1.649832487106323242e+00 2.246264368295669556e-01 4.178904056549072266e+00
-1.606109976768493652e+00 2.284451872110366821e-01 4.260513782501220703e+00
-1.552755475044250488e+00 2.314171642065048218e-01 4.326644420623779297e+00
-1.515215873718261719e+00 2.359890937805175781e-01 4.427941799163818359e+00
-1.463532209396362305e+00 2.379190176725387573e-01 4.502147197723388672e+00
-1.407586097717285156e+00 2.375574558973312378e-01 4.563015460968017578e+00
-1.715815544128417969e+00 2.842592597007751465e-01 3.979765176773071289e+00
-1.681512713432312012e+00 2.896512746810913086e-01 4.079318523406982422e+00
-1.635594129562377930e+00 2.924492061138153076e-01 4.154325485229492188e+00
-1.595079660415649414e+00 2.976651489734649658e-01 4.245350360870361328e+00
-1.551512002944946289e+00 3.014805912971496582e-01 4.328443527221679688e+00
-1.500281095504760742e+00 3.046417534351348877e-01 4.401645183563232422e+00
-1.457224011421203613e+00 3.077555298805236816e-01 4.495337963104248047e+00
-1.406613349914550781e+00 3.112345337867736816e-01 4.570932388305664062e+00
-1.713905334472656250e+00 3.531649708747863770e-01 3.981992244720458984e+00
-1.678293347358703613e+00 3.583381474018096924e-01 4.076198101043701172e+00
-1.631222009658813477e+00 3.628478646278381348e-01 4.152691364288330078e+00
-1.588946104049682617e+00 3.667666316032409668e-01 4.236835956573486328e+00
-1.544667482376098633e+00 3.722064197063446045e-01 4.326394081115722656e+00
-1.494702339172363281e+00 3.738984763622283936e-01 4.395350456237792969e+00
-1.449786543846130371e+00 3.783155083656311035e-01 4.486145496368408203e+00
-1.402909755706787109e+00 3.823517560958862305e-01 4.570852756500244141e+00
-6.358399987220764160e-01 6.692310571670532227e-01 4.633601665496826172e+00
-6.403537392616271973e-01 7.327372431755065918e-01 4.597785472869873047e+00
-6.414182186126708984e-01 7.960917353630065918e-01 4.551471233367919922e+00
-6.442443728446960449e-01 8.570083379745483398e-01 4.505014896392822266e+00
-6.471605300903320312e-01 9.234467744827270508e-01 4.467317104339599609e+00
-6.495082378387451172e-01 9.831524491310119629e-01 4.420506000518798828e+00
-6.540441513061523438e-01 1.049346923828125000e+00 4.386079788208007812e+00
-6.584598422050476074e-01 1.109811902046203613e+00 4.343904018402099609e+00
-7.064793109893798828e-01 6.696317791938781738e-01 4.624950885772705078e+00
-7.091292142868041992e-01 7.349421381950378418e-01 4.584932804107666016e+00
-7.127418518066406250e-01 7.971848249435424805e-01 4.542821407318115234e+00
-7.136366963386535645e-01 8.597319126129150391e-01 4.496689319610595703e+00
-7.168323993682861328e-01 9.208648800849914551e-01 4.452409744262695312e+00
-7.194091081619262695e-01 9.848778843879699707e-01 4.411950111389160156e+00
-7.236464619636535645e-01 1.046916484832763672e+00 4.372479915618896484e+00
-7.257800102233886719e-01 1.107638359069824219e+00 4.323529243469238281e+00
-7.794471383094787598e-01 6.757144331932067871e-01 4.629115581512451172e+00
-7.803573012351989746e-01 7.359311580657958984e-01 4.580391883850097656e+00
-7.828946709632873535e-01 8.012663722038269043e-01 4.539090156555175781e+00
-7.844251990318298340e-01 8.607193231582641602e-01 4.487241268157958984e+00
-7.856329679489135742e-01 9.222205877304077148e-01 4.439714431762695312e+00
-7.898363471031188965e-01 9.842869639396667480e-01 4.402223587036132812e+00
-7.917336225509643555e-01 1.046214580535888672e+00 4.356488704681396484e+00
-7.943914532661437988e-01 1.103938341140747070e+00 4.303368568420410156e+00
-8.476124405860900879e-01 6.759233474731445312e-01 4.614546775817871094e+00
-8.492534160614013672e-01 7.391475439071655273e-01 4.570232391357421875e+00
-8.536832928657531738e-01 8.014644384384155273e-01 4.531663417816162109e+00
-8.534250259399414062e-01 8.636318445205688477e-01 4.478835105895996094e+00
-8.559715151786804199e-01 9.232378602027893066e-01 4.430507659912109375e+00
-8.581643700599670410e-01 9.855890870094299316e-01 4.387309551239013672e+00
-8.608376979827880859e-01 1.044839859008789062e+00 4.340116500854492188e+00
-8.634225130081176758e-01 1.105762362480163574e+00 4.292607784271240234e+00
-9.144427776336669922e-01 6.756463050842285156e-01 4.593129158020019531e+00
-9.165202379226684570e-01 7.388862967491149902e-01 4.546780586242675781e+00
-9.189542531967163086e-01 8.014991283416748047e-01 4.508580684661865234e+00
-9.255109429359436035e-01 8.649169206619262695e-01 4.479033946990966797e+00
-9.249261617660522461e-01 9.253985285758972168e-01 4.422423839569091797e+00
-9.293413758277893066e-01 9.868249297142028809e-01 4.383124351501464844e+00
-9.308110475540161133e-01 1.046764373779296875e+00 4.331167697906494141e+00
-9.361789822578430176e-01 1.107531428337097168e+00 4.293279170989990234e+00
-9.824211001396179199e-01 6.787071824073791504e-01 4.585816383361816406e+00
-9.841203689575195312e-01 7.393292188644409180e-01 4.540341377258300781e+00
-9.861534833908081055e-01 8.019803762435913086e-01 4.487663269042968750e+00
-9.890297651290893555e-01 8.619816899299621582e-01 4.450938224792480469e+00
-9.927639961242675781e-01 9.242814779281616211e-01 4.406266212463378906e+00
-9.948295950889587402e-01 9.840877056121826172e-01 4.360793113708496094e+00
-9.996747970581054688e-01 1.045803189277648926e+00 4.319993019104003906e+00
-9.980164766311645508e-01 1.101586341857910156e+00 4.261598110198974609e+00
-1.110898405313491821e-01 -2.816357314586639404e-01 3.336153030395507812e+00
-1.104932129383087158e-01 -2.054428011178970337e-01 3.338048219680786133e+00
-1.099982634186744690e-01 -1.293047666549682617e-01 3.340744018554687500e+00
-1.097284182906150818e-01 -5.258071050047874451e-02 3.340566396713256836e+00
-1.088454276323318481e-01 2.403282001614570618e-02 3.335524797439575195e+00
-1.084892153739929199e-01 9.941256046295166016e-02 3.330515384674072266e+00
-1.853308975696563721e-01 -2.803092300891876221e-01 3.332172155380249023e+00
-1.838658154010772705e-01 -2.035426199436187744e-01 3.327585697174072266e+00
-1.827009320259094238e-01 -1.273705512285232544e-01 3.325130701065063477e+00
-1.823351979255676270e-01 -5.104330182075500488e-02 3.328045606613159180e+00
-1.823515743017196655e-01 2.469078451395034790e-02 3.329784870147705078e+00
-1.809086799621582031e-01 1.010750755667686462e-01 3.324482202529907227e+00
-2.603846788406372070e-01 -2.786933779716491699e-01 3.333686590194702148e+00
-2.591922581195831299e-01 -2.020830065011978149e-01 3.327186584472656250e+00
-2.578923404216766357e-01 -1.264313012361526489e-01 3.324903964996337891e+00
-2.573961019515991211e-01 -5.017356574535369873e-02 3.325407505035400391e+00
-2.555962204933166504e-01 2.591744810342788696e-02 3.322932481765747070e+00
-2.551522254943847656e-01 1.020365059375762939e-01 3.320600509643554688e+00
-3.324621319770812988e-01 -2.760887742042541504e-01 3.318791866302490234e+00
-3.315750360488891602e-01 -2.009128481149673462e-01 3.316993713378906250e+00
-3.310643732547760010e-01 -1.251282393932342529e-01 3.316236257553100586e+00
-3.301352560520172119e-01 -4.876852408051490784e-02 3.313971042633056641e+00
-3.296370208263397217e-01 2.664336375892162323e-02 3.314136028289794922e+00
-3.286639153957366943e-01 1.030624881386756897e-01 3.314627170562744141e+00
-4.074318706989288330e-01 -2.751203775405883789e-01 3.313288688659667969e+00
-4.054332971572875977e-01 -1.999800056219100952e-01 3.310826063156127930e+00
-4.032365083694458008e-01 -1.232753321528434753e-01 3.304305315017700195e+00
-4.014560878276824951e-01 -4.753627255558967590e-02 3.298848867416381836e+00
-4.001847505569458008e-01 2.764567546546459198e-02 3.297626733779907227e+00
-3.998762369155883789e-01 1.030767560005187988e-01 3.294487953186035156e+00
-4.777106940746307373e-01 -2.731817960739135742e-01 3.288885354995727539e+00
-4.776888191699981689e-01 -1.982720047235488892e-01 3.294381380081176758e+00
-4.780347645282745361e-01 -1.218694299459457397e-01 3.301278591156005859e+00
-4.762126207351684570e-01 -4.675900563597679138e-02 3.298168182373046875e+00
-4.744355678558349609e-01 2.820482850074768066e-02 3.293586730957031250e+00
-4.717004001140594482e-01 1.041712164878845215e-01 3.285549402236938477e+00
-5.515765547752380371e-01 -2.717052996158599854e-01 3.282621622085571289e+00
-5.480918884277343750e-01 -1.958582252264022827e-01 3.273792505264282227e+00
-5.457566976547241211e-01 -1.199233904480934143e-01 3.269118309020996094e+00
-5.460143685340881348e-01 -4.640820249915122986e-02 3.275583744049072266e+00
-5.456862449645996094e-01 2.955063246190547943e-02 3.280592441558837891e+00
-5.459730625152587891e-01 1.047553792595863342e-01 3.281168699264526367e+00
-6.207959651947021484e-01 -2.690844833850860596e-01 3.256006240844726562e+00
-6.210697293281555176e-01 -1.947521418333053589e-01 3.263548374176025391e+00
-6.210419535636901855e-01 -1.199001073837280273e-01 3.267034530639648438e+00
-6.181304454803466797e-01 -4.515176638960838318e-02 3.260725975036621094e+00
-6.158246994018554688e-01 3.030140511691570282e-02 3.255470275878906250e+00
-6.135600805282592773e-01 1.048451736569404602e-01 3.256145238876342773e+00
2.156887203454971313e-01 2.289958745241165161e-01 4.745595455169677734e+00
2.871121466159820557e-01 2.303859442472457886e-01 4.735886573791503906e+00
3.623969554901123047e-01 2.321712672710418701e-01 4.717380046844482422e+00
4.352785050868988037e-01 2.355861365795135498e-01 4.716205120086669922e+00
5.118079185485839844e-01 2.376580834388732910e-01 4.716129779815673828e+00
5.837890505790710449e-01 2.407972365617752075e-01 4.703366756439208984e+00
2.094928622245788574e-01 3.032452166080474854e-01 4.717555522918701172e+00
2.833423614501953125e-01 3.044019341468811035e-01 4.704473018646240234e+00
3.579784035682678223e-01 3.076658844947814941e-01 4.704647541046142578e+00
4.321638941764831543e-01 3.105808794498443604e-01 4.702607154846191406e+00
5.062353014945983887e-01 3.134914040565490723e-01 4.699463844299316406e+00
5.785001516342163086e-01 3.133390545845031738e-01 4.679136276245117188e+00
2.043293714523315430e-01 3.783074915409088135e-01 4.694526672363281250e+00
2.785973548889160156e-01 3.811540007591247559e-01 4.700544357299804688e+00
3.521866798400878906e-01 3.833094835281372070e-01 4.700850963592529297e+00
4.256262779235839844e-01 3.861109912395477295e-01 4.687181472778320312e+00
4.992055594921112061e-01 3.882828354835510254e-01 4.688474655151367188e+00
5.732687711715698242e-01 3.913857042789459229e-01 4.679540634155273438e+00
1.985103338956832886e-01 4.536208212375640869e-01 4.694939136505126953e+00
2.718405425548553467e-01 4.551483690738677979e-01 4.683397769927978516e+00
3.453913927078247070e-01 4.573032855987548828e-01 4.672480106353759766e+00
4.197722971439361572e-01 4.601226449012756348e-01 4.675905704498291016e+00
4.945484399795532227e-01 4.636169970035552979e-01 4.668610572814941406e+00
5.681343674659729004e-01 4.648434817790985107e-01 4.665670394897460938e+00
1.928038448095321655e-01 5.258923172950744629e-01 4.654327869415283203e+00
2.676139771938323975e-01 5.288301706314086914e-01 4.657213687896728516e+00
3.409028351306915283e-01 5.304852128028869629e-01 4.651937007904052734e+00
4.160063266754150391e-01 5.354716777801513672e-01 4.656311511993408203e+00
4.886000454425811768e-01 5.362777113914489746e-01 4.643894672393798828e+00
5.626742839813232422e-01 5.394263863563537598e-01 4.635154247283935547e+00
1.873651146888732910e-01 6.015519499778747559e-01 4.655909538269042969e+00
2.600841522216796875e-01 6.032913923263549805e-01 4.647357463836669922e+00
3.347876071929931641e-01 6.061586141586303711e-01 4.643977165222167969e+00
4.077389836311340332e-01 6.086456775665283203e-01 4.640347957611083984e+00
4.825076162815093994e-01 6.118474602699279785e-01 4.633200645446777344e+00
5.554180741310119629e-01 6.126772761344909668e-01 4.627171039581298828e+00
1.804784536361694336e-01 6.739841103553771973e-01 4.626126766204833984e+00
2.550209164619445801e-01 6.770377159118652344e-01 4.627576351165771484e+00
3.285376131534576416e-01 6.794623732566833496e-01 4.626841545104980469e+00
4.037805199623107910e-01 6.846221685409545898e-01 4.628947734832763672e+00
4.767745435237884521e-01 6.862096786499023438e-01 4.624908447265625000e+00
5.519771575927734375e-01 6.908608078956604004e-01 4.626664161682128906e+00
1.756913363933563232e-01 7.468283176422119141e-01 4.608029842376708984e+00
2.477328032255172729e-01 7.486652731895446777e-01 4.602787017822265625e+00
3.233589529991149902e-01 7.527263760566711426e-01 4.601063728332519531e+00
3.958107233047485352e-01 7.554755806922912598e-01 4.598755836486816406e+00
4.711262285709381104e-01 7.587959766387939453e-01 4.592495441436767578e+00
5.434271097183227539e-01 7.583948969841003418e-01 4.578994750976562500e+00
1.284827947616577148e+00 8.431079387664794922e-01 4.478797435760498047e+00
1.274005770683288574e+00 8.951462507247924805e-01 4.426332950592041016e+00
1.261935710906982422e+00 9.472061991691589355e-01 4.366785049438476562e+00
1.251107931137084961e+00 1.001678943634033203e+00 4.317678928375244141e+00
1.238614559173583984e+00 1.052634835243225098e+00 4.259576320648193359e+00
1.227547168731689453e+00 1.106826066970825195e+00 4.207940101623535156e+00
1.217837214469909668e+00 8.509821295738220215e-01 4.512498378753662109e+00
1.200448751449584961e+00 8.975425362586975098e-01 4.430696487426757812e+00
1.185093641281127930e+00 9.466444253921508789e-01 4.361502647399902344e+00
1.172804594039916992e+00 9.986063241958618164e-01 4.301194667816162109e+00
1.165070772171020508e+00 1.055795311927795410e+00 4.266804695129394531e+00
1.153571963310241699e+00 1.108513116836547852e+00 4.211971759796142578e+00
1.140536665916442871e+00 8.510890603065490723e-01 4.509163856506347656e+00
1.128838539123535156e+00 9.021796584129333496e-01 4.449898242950439453e+00
1.116046667098999023e+00 9.537904858589172363e-01 4.388442039489746094e+00
1.107951164245605469e+00 1.011322259902954102e+00 4.353538036346435547e+00
1.093350172042846680e+00 1.061715006828308105e+00 4.286435604095458984e+00
1.077794551849365234e+00 1.107956171035766602e+00 4.205548286437988281e+00
1.067072749137878418e+00 8.525258898735046387e-01 4.513123035430908203e+00
1.057507395744323730e+00 9.066034555435180664e-01 4.466543197631835938e+00
1.048906445503234863e+00 9.629722833633422852e-01 4.424908638000488281e+00
1.031596541404724121e+00 1.008876442909240723e+00 4.333260536193847656e+00
1.019811272621154785e+00 1.062323570251464844e+00 4.283555507659912109e+00
1.005880355834960938e+00 1.113378882408142090e+00 4.222890853881835938e+00
9.942855238914489746e-01 8.547540903091430664e-01 4.522155284881591797e+00
9.852889776229858398e-01 9.097739458084106445e-01 4.478145599365234375e+00
9.699143171310424805e-01 9.588306546211242676e-01 4.400868892669677734e+00
9.574099183082580566e-01 1.013307929039001465e+00 4.348336219787597656e+00
9.477769732475280762e-01 1.068569421768188477e+00 4.306034564971923828e+00
9.348936676979064941e-01 1.117761611938476562e+00 4.239063262939453125e+00
9.237410426139831543e-01 8.596352338790893555e-01 4.542763233184814453e+00
9.107422232627868652e-01 9.128896594047546387e-01 4.484819889068603516e+00
8.987022042274475098e-01 9.657100439071655273e-01 4.427075386047363281e+00
8.862736821174621582e-01 1.017586112022399902e+00 4.365621089935302734e+00
8.726271986961364746e-01 1.066336631774902344e+00 4.295746803283691406e+00
8.622965216636657715e-01 1.121487736701965332e+00 4.251822948455810547e+00
8.508391380310058594e-01 8.643257021903991699e-01 4.563014030456542969e+00
8.368578553199768066e-01 9.162953495979309082e-01 4.495049953460693359e+00
8.261198997497558594e-01 9.702411293983459473e-01 4.445018768310546875e+00
8.118562102317810059e-01 1.018875241279602051e+00 4.370694637298583984e+00
7.999171018600463867e-01 1.070604920387268066e+00 4.310874462127685547e+00
7.877815365791320801e-01 1.121440052986145020e+00 4.250182628631591797e+00
7.773453593254089355e-01 8.665002584457397461e-01 4.565745353698730469e+00
7.638754844665527344e-01 9.172410368919372559e-01 4.500163078308105469e+00
7.513290643692016602e-01 9.685592651367187500e-01 4.436679363250732422e+00
7.401207089424133301e-01 1.023200154304504395e+00 4.389863967895507812e+00
7.269843816757202148e-01 1.075138926506042480e+00 4.328763008117675781e+00
7.164021730422973633e-01 1.129668474197387695e+00 4.281747341156005859e+00
1.360002398490905762e+00 -1.716873645782470703e-01 5.074716091156005859e+00
1.360814094543457031e+00 -9.575350582599639893e-02 5.068235397338867188e+00
1.358637928962707520e+00 -1.992207020521163940e-02 5.062682151794433594e+00
1.362805724143981934e+00 5.616531893610954285e-02 5.069559097290039062e+00
1.364943385124206543e+00 1.321969777345657349e-01 5.076870441436767578e+00
1.364950537681579590e+00 2.082440108060836792e-01 5.064447879791259766e+00
1.358534216880798340e+00 2.824249565601348877e-01 5.028664112091064453e+00
1.357729315757751465e+00 3.573987185955047607e-01 5.016730308532714844e+00
1.291474819183349609e+00 -1.703711152076721191e-01 5.090168952941894531e+00
1.288927316665649414e+00 -9.522925317287445068e-02 5.088007450103759766e+00
1.292724370956420898e+00 -1.794625818729400635e-02 5.092674255371093750e+00
1.284805297851562500e+00 5.715432390570640564e-02 5.051752090454101562e+00
1.286564707756042480e+00 1.335737109184265137e-01 5.051904201507568359e+00
1.285452008247375488e+00 2.084303945302963257e-01 5.042889595031738281e+00
1.290848374366760254e+00 2.856691181659698486e-01 5.056607246398925781e+00
1.290101408958435059e+00 3.606921136379241943e-01 5.043933391571044922e+00
1.213660478591918945e+00 -1.702564209699630737e-01 5.093874454498291016e+00
1.212306022644042969e+00 -9.348718076944351196e-02 5.068849563598632812e+00
1.211448788642883301e+00 -1.720806770026683807e-02 5.068052768707275391e+00
1.213592171669006348e+00 5.902077257633209229e-02 5.070227146148681641e+00
1.216143965721130371e+00 1.349823772907257080e-01 5.077452182769775391e+00
1.216876387596130371e+00 2.114794254302978516e-01 5.069083213806152344e+00
1.211664795875549316e+00 2.849199473857879639e-01 5.034898281097412109e+00
1.209271192550659180e+00 3.601727783679962158e-01 5.012793540954589844e+00
1.140166401863098145e+00 -1.665555685758590698e-01 5.080968379974365234e+00
1.135734915733337402e+00 -9.168276190757751465e-02 5.073427677154541016e+00
1.140801906585693359e+00 -1.641199924051761627e-02 5.080304622650146484e+00
1.137073516845703125e+00 6.001820787787437439e-02 5.058201313018798828e+00
1.138531565666198730e+00 1.351051330566406250e-01 5.053380489349365234e+00
1.136304736137390137e+00 2.113004773855209351e-01 5.041698932647705078e+00
1.139510273933410645e+00 2.868053913116455078e-01 5.044086933135986328e+00
1.141161084175109863e+00 3.641658127307891846e-01 5.045390605926513672e+00
1.066504359245300293e+00 -1.657226234674453735e-01 5.115641117095947266e+00
1.064701080322265625e+00 -9.090396761894226074e-02 5.078349590301513672e+00
1.062678456306457520e+00 -1.532258931547403336e-02 5.070975780487060547e+00
1.063815951347351074e+00 6.231910362839698792e-02 5.068057060241699219e+00
1.065087080001831055e+00 1.368035376071929932e-01 5.070183753967285156e+00
1.066858530044555664e+00 2.144637107849121094e-01 5.067174434661865234e+00
1.063884377479553223e+00 2.880406975746154785e-01 5.044034481048583984e+00
1.061432242393493652e+00 3.632903993129730225e-01 5.016074180603027344e+00
9.885707497596740723e-01 -1.636549532413482666e-01 5.064702510833740234e+00
9.862375259399414062e-01 -8.803353458642959595e-02 5.071219921112060547e+00
9.895513653755187988e-01 -1.380478590726852417e-02 5.074298381805419922e+00
9.877648353576660156e-01 6.238314881920814514e-02 5.060426712036132812e+00
9.887250661849975586e-01 1.376459598541259766e-01 5.048844337463378906e+00
9.863893985748291016e-01 2.131391465663909912e-01 5.034553527832031250e+00
9.876117110252380371e-01 2.896420657634735107e-01 5.029578685760498047e+00
9.892351031303405762e-01 3.648221194744110107e-01 5.029322147369384766e+00
1.634597182273864746e+00 5.295505523681640625e-01 4.488817214965820312e+00
1.701256990432739258e+00 5.299745202064514160e-01 4.468296051025390625e+00
1.755140542984008789e+00 5.279449224472045898e-01 4.403410911560058594e+00
1.824983239173889160e+00 5.305951833724975586e-01 4.390887737274169922e+00
1.884266853332519531e+00 5.285391211509704590e-01 4.344754219055175781e+00
1.946645379066467285e+00 5.281779766082763672e-01 4.311928749084472656e+00
1.618691325187683105e+00 5.996821522712707520e-01 4.458230495452880859e+00
1.684759020805358887e+00 6.010463833808898926e-01 4.430524826049804688e+00
1.749546289443969727e+00 6.015517115592956543e-01 4.398605346679687500e+00
1.809776306152343750e+00 6.008104085922241211e-01 4.359907150268554688e+00
1.878072261810302734e+00 6.030756235122680664e-01 4.338691711425781250e+00
1.933686017990112305e+00 6.003524065017700195e-01 4.287415027618408203e+00
1.612506270408630371e+00 6.757111549377441406e-01 4.455132961273193359e+00
1.670870304107666016e+00 6.725648641586303711e-01 4.403546810150146484e+00
1.743344783782958984e+00 6.767664551734924316e-01 4.397219181060791016e+00
1.805437922477722168e+00 6.765100955963134766e-01 4.358468055725097656e+00
1.861974000930786133e+00 6.726582646369934082e-01 4.308191776275634766e+00
1.916233658790588379e+00 6.708041429519653320e-01 4.249586582183837891e+00
1.602576732635498047e+00 7.493207454681396484e-01 4.441344738006591797e+00
1.667384147644042969e+00 7.491117119789123535e-01 4.409927368164062500e+00
1.723927378654479980e+00 7.462659478187561035e-01 4.355603218078613281e+00
1.794226765632629395e+00 7.477536201477050781e-01 4.337715625762939453e+00
1.844568371772766113e+00 7.408120632171630859e-01 4.270086288452148438e+00
1.915096998214721680e+00 7.444169521331787109e-01 4.255248546600341797e+00
1.590106606483459473e+00 8.200467228889465332e-01 4.418484210968017578e+00
1.655145168304443359e+00 8.202964663505554199e-01 4.385561466217041016e+00
1.714162230491638184e+00 8.175502419471740723e-01 4.338136196136474609e+00
1.778169274330139160e+00 8.183045983314514160e-01 4.303195476531982422e+00
1.842813014984130859e+00 8.201833963394165039e-01 4.279093742370605469e+00
1.903360009193420410e+00 8.158508539199829102e-01 4.237963676452636719e+00
1.571688771247863770e+00 8.865146636962890625e-01 4.373192787170410156e+00
1.640645861625671387e+00 8.891007900238037109e-01 4.356847286224365234e+00
1.702282667160034180e+00 8.880637288093566895e-01 4.313968181610107422e+00
1.763083219528198242e+00 8.875690102577209473e-01 4.277115345001220703e+00
1.828597187995910645e+00 8.881265521049499512e-01 4.250349521636962891e+00
1.893514275550842285e+00 8.897524476051330566e-01 4.221255302429199219e+00
1.557598352432250977e+00 9.565134644508361816e-01 4.346516132354736328e+00
1.620704531669616699e+00 9.553888440132141113e-01 4.307873725891113281e+00
1.688056826591491699e+00 9.576122760772705078e-01 4.288273811340332031e+00
1.752391338348388672e+00 9.586473703384399414e-01 4.259285449981689453e+00
1.814198732376098633e+00 9.572395682334899902e-01 4.218008041381835938e+00
1.874967575073242188e+00 9.556807875633239746e-01 4.182055950164794922e+00
1.548189759254455566e+00 1.029420018196105957e+00 4.329542160034179688e+00
1.611801505088806152e+00 1.028667449951171875e+00 4.298776626586914062e+00
1.676397919654846191e+00 1.029190063476562500e+00 4.268474102020263672e+00
1.736895680427551270e+00 1.025462746620178223e+00 4.222057819366455078e+00
1.798429489135742188e+00 1.024651288986206055e+00 4.187312602996826172e+00
1.868183493614196777e+00 1.027256011962890625e+00 4.176150798797607422e+00
1.794618248939514160e+00 -3.703628182411193848e-01 3.349048614501953125e+00
1.793893218040466309e+00 -2.948761880397796631e-01 3.340053081512451172e+00
1.794534206390380859e+00 -2.198835760354995728e-01 3.335071802139282227e+00
1.793766736984252930e+00 -1.444639265537261963e-01 3.326314449310302734e+00
1.795045733451843262e+00 -6.960141658782958984e-02 3.319200515747070312e+00
1.789938807487487793e+00 4.413917660713195801e-03 3.300793170928955078e+00
1.723855018615722656e+00 -3.696413934230804443e-01 3.355538368225097656e+00
1.725653648376464844e+00 -2.945295572280883789e-01 3.354333400726318359e+00
1.722985506057739258e+00 -2.182092666625976562e-01 3.340089321136474609e+00
1.726363897323608398e+00 -1.434148699045181274e-01 3.340028285980224609e+00
1.721257328987121582e+00 -6.816991418600082397e-02 3.321027040481567383e+00
1.727309465408325195e+00 6.367607507854700089e-03 3.324129581451416016e+00
1.655486583709716797e+00 -3.692241311073303223e-01 3.370013236999511719e+00
1.650365471839904785e+00 -2.925418019294738770e-01 3.351352453231811523e+00
1.655995965003967285e+00 -2.182220518589019775e-01 3.357283353805541992e+00
1.650612711906433105e+00 -1.417856067419052124e-01 3.335675477981567383e+00
1.656345486640930176e+00 -6.677155941724777222e-02 3.340594530105590820e+00
1.649758458137512207e+00 7.800072431564331055e-03 3.315795421600341797e+00
1.580712318420410156e+00 -3.682593703269958496e-01 3.371376514434814453e+00
1.582963824272155762e+00 -2.929761409759521484e-01 3.367066621780395508e+00
1.579164624214172363e+00 -2.162967771291732788e-01 3.351151943206787109e+00
1.583955407142639160e+00 -1.406292319297790527e-01 3.353874921798706055e+00
1.579104542732238770e+00 -6.563317775726318359e-02 3.333531856536865234e+00
1.582899689674377441e+00 9.511761367321014404e-03 3.332485675811767578e+00
1.509829998016357422e+00 -3.679909110069274902e-01 3.377689361572265625e+00
1.508690118789672852e+00 -2.915163636207580566e-01 3.370563983917236328e+00
1.509494900703430176e+00 -2.148855030536651611e-01 3.361497640609741211e+00
1.507580637931823730e+00 -1.394710987806320190e-01 3.349877595901489258e+00
1.509857296943664551e+00 -6.456707417964935303e-02 3.344781160354614258e+00
1.507819890975952148e+00 1.162588410079479218e-02 3.331487178802490234e+00
1.436753153800964355e+00 -3.670658767223358154e-01 3.383760690689086914e+00
1.435251593589782715e+00 -2.895066738128662109e-01 3.371156454086303711e+00
1.437314510345458984e+00 -2.146133929491043091e-01 3.369907617568969727e+00
1.434898138046264648e+00 -1.387728005647659302e-01 3.352539539337158203e+00
1.436954379081726074e+00 -6.242646276950836182e-02 3.351087093353271484e+00
1.435283184051513672e+00 1.294615492224693298e-02 3.334075927734375000e+00
1.361633658409118652e+00 -3.659900426864624023e-01 3.384751796722412109e+00
1.362245082855224609e+00 -2.894516587257385254e-01 3.375681638717651367e+00
1.361068010330200195e+00 -2.134989053010940552e-01 3.364900588989257812e+00
1.363659977912902832e+00 -1.374052315950393677e-01 3.364315748214721680e+00
1.360478281974792480e+00 -6.077684089541435242e-02 3.343335151672363281e+00
1.362469434738159180e+00 1.413739845156669617e-02 3.342403173446655273e+00
1.288783431053161621e+00 -3.652567565441131592e-01 3.388289690017700195e+00
1.286835908889770508e+00 -2.888097465038299561e-01 3.376957178115844727e+00
1.288414835929870605e+00 -2.122646719217300415e-01 3.369885921478271484e+00
1.286091923713684082e+00 -1.358708441257476807e-01 3.355599641799926758e+00
1.288910984992980957e+00 -6.006856262683868408e-02 3.355046987533569336e+00
1.286591529846191406e+00 1.543008908629417419e-02 3.336039304733276367e+00
2.341710090637207031e+00 3.256591558456420898e-01 4.284162521362304688e+00
2.387773513793945312e+00 3.216883838176727295e-01 4.236423015594482422e+00
2.411487102508544922e+00 3.136295974254608154e-01 4.146314144134521484e+00
2.435712814331054688e+00 3.050666451454162598e-01 4.056934833526611328e+00
2.472417593002319336e+00 2.985127568244934082e-01 3.994081258773803711e+00
2.503818035125732422e+00 2.909210324287414551e-01 3.923574686050415039e+00
2.526034116744995117e+00 2.821936309337615967e-01 3.836504459381103516e+00
2.560291528701782227e+00 2.747475206851959229e-01 3.772168636322021484e+00
2.318760395050048828e+00 3.887650668621063232e-01 4.264434814453125000e+00
2.355848312377929688e+00 3.846362531185150146e-01 4.200401306152343750e+00
2.383107662200927734e+00 3.765715658664703369e-01 4.114028930664062500e+00
2.413534879684448242e+00 3.692910075187683105e-01 4.040246963500976562e+00
2.442862749099731445e+00 3.609987199306488037e-01 3.962222814559936523e+00
2.474435806274414062e+00 3.536900281906127930e-01 3.892474174499511719e+00
2.506131410598754883e+00 3.448286056518554688e-01 3.820561647415161133e+00
2.532085895538330078e+00 3.362794518470764160e-01 3.743168830871582031e+00
2.291429758071899414e+00 4.545050859451293945e-01 4.239304542541503906e+00
2.322778940200805664e+00 4.471445679664611816e-01 4.162344455718994141e+00
2.363009214401245117e+00 4.422279000282287598e-01 4.103177547454833984e+00
2.390623807907104492e+00 4.332768321037292480e-01 4.020795822143554688e+00
2.422197818756103516e+00 4.258294701576232910e-01 3.949727296829223633e+00
2.454656362533569336e+00 4.176581501960754395e-01 3.879152536392211914e+00
2.481870412826538086e+00 4.089474081993103027e-01 3.800550699234008789e+00
2.512392282485961914e+00 4.003760814666748047e-01 3.728784084320068359e+00
2.264747381210327148e+00 5.185595750808715820e-01 4.214276790618896484e+00
2.299604415893554688e+00 5.128284692764282227e-01 4.143699169158935547e+00
2.327222824096679688e+00 5.030483603477478027e-01 4.060000896453857422e+00
2.366723060607910156e+00 4.973700940608978271e-01 4.001022815704345703e+00
2.390920639038085938e+00 4.876487851142883301e-01 3.914816141128540039e+00
2.428215742111206055e+00 4.811868667602539062e-01 3.853756666183471680e+00
2.454738616943359375e+00 4.712117314338684082e-01 3.773625373840332031e+00
2.483653545379638672e+00 4.622234106063842773e-01 3.700318813323974609e+00
2.240633249282836914e+00 5.838209986686706543e-01 4.191907882690429688e+00
2.270998954772949219e+00 5.754140615463256836e-01 4.113468170166015625e+00
2.304473638534545898e+00 5.680146813392639160e-01 4.042943954467773438e+00
2.336734294891357422e+00 5.610440373420715332e-01 3.970947742462158203e+00
2.368550539016723633e+00 5.523383617401123047e-01 3.897959470748901367e+00
2.399682044982910156e+00 5.433094501495361328e-01 3.825103282928466797e+00
2.430334568023681641e+00 5.352370142936706543e-01 3.754523515701293945e+00
2.459199190139770508e+00 5.247574448585510254e-01 3.678858757019042969e+00
2.215601921081542969e+00 6.482122540473937988e-01 4.171979904174804688e+00
2.253520011901855469e+00 6.424515247344970703e-01 4.107326030731201172e+00
2.279736995697021484e+00 6.339545845985412598e-01 4.020579338073730469e+00
2.310697078704833984e+00 6.249216794967651367e-01 3.946130990982055664e+00
2.344474792480468750e+00 6.163482666015625000e-01 3.877218961715698242e+00
2.375571489334106445e+00 6.069613695144653320e-01 3.807019948959350586e+00
2.399166822433471680e+00 5.959538817405700684e-01 3.720557451248168945e+00
2.428312540054321289e+00 5.873080492019653320e-01 3.647255182266235352e+00
