# .PCD v0.7 - Point Cloud Data file format
VERSION 0.7
FIELDS x y z intensity ring
SIZE 4 4 4 4 2
TYPE F F F F U
COUNT 1 1 1 1 1
WIDTH 133632
HEIGHT 1
VIEWPOINT 0 0 0 1 0 0 0
POINTS 156
DATA ascii
4.678915010799999941e+00 9.799735300000000926e-03 -1.080215014299999998e+00
4.633201362400000356e+00 -6.239631396999999469e-01 -1.079315210000000080e+00
3.997617770699999795e+00 -5.383677377000000153e-01 -1.080828383700000117e+00
4.056167974200000081e+00 -7.646561089999999450e-02 -1.087040041100000076e+00
4.681990870399999949e+00 -8.826342859999999901e-02 -1.081114818499999908e+00
4.575989598199999620e+00 -8.778840879000000541e-01 -1.075715992999999981e+00
3.989876881899999894e+00 -5.522214960000000339e-01 -1.079275469300000179e+00
4.069395928399999640e+00 -9.092621800000000309e-02 -1.090663507899999995e+00
4.693343764599999801e+00 -1.048676525999999998e-01 -1.083814231299999875e+00
4.546902729400000176e+00 -9.722815662999999553e-01 -1.073466482299999969e+00
4.637283342199999936e+00 -6.080400443000000266e-01 -1.079765112100000035e+00
4.014702425600000346e+00 -5.699466430999999833e-01 -1.086522402900000017e+00
4.055535299199999777e+00 -1.047810199000000081e-01 -1.087040041100000076e+00
4.685156760699999978e+00 -1.210482631000000114e-01 -1.082014622800000048e+00
4.003129863099999852e+00 -5.825663809000000137e-01 -1.083934212399999986e+00
4.059006870600000205e+00 -1.190504391000000023e-01 -1.088075317299999956e+00
4.700288889300000328e+00 -1.378592040000000130e-01 -1.085613839800000147e+00
3.989711279900000296e+00 -5.941309325000000419e-01 -1.080828383700000117e+00
4.052774149599999376e+00 -1.330279451999999973e-01 -1.086522402900000017e+00
4.684197513199999996e+00 -1.537537368999999932e-01 -1.082014622800000048e+00
3.991432654400000057e+00 -6.086362188000000728e-01 -1.081863659899999996e+00
4.631238404499999461e+00 -7.061974170000000495e-01 -1.081564720699999871e+00
4.050354533500000187e+00 -1.471036247000000186e-01 -1.086004764799999966e+00
4.683632283799999740e+00 -1.701034513999999942e-01 -1.082014622800000048e+00
3.989283833500000043e+00 -6.225649983000000054e-01 -1.081863659899999996e+00
4.609490791399999843e+00 -7.193540862000000757e-01 -1.077065699400000076e+00
4.051746679399999884e+00 -1.613182826000000014e-01 -1.086522402900000017e+00
4.683009962699999917e+00 -1.864517169000000085e-01 -1.082014622800000048e+00
3.992809411600000136e+00 -6.374003404999999400e-01 -1.083416574300000157e+00
4.601178513299999828e+00 -7.345185929999999974e-01 -1.075715992999999981e+00
4.049228855800000026e+00 -1.753767269999999823e-01 -1.086004764799999966e+00
4.688171350100000190e+00 -2.030500562000000231e-01 -1.083364329199999920e+00
4.686350189200000571e+00 5.889361320000000011e-02 -1.082014622800000048e+00
3.992466800499999913e+00 -6.516449467999999579e-01 -1.083934212399999986e+00
4.602433153099999785e+00 -7.512028170000000227e-01 -1.076615797199999891e+00
4.037013559600000079e+00 -1.889684538999999996e-01 -1.082898936100000098e+00
4.681594167300000109e+00 -2.191406094000000193e-01 -1.082014622800000048e+00
3.982429721299999947e+00 -6.650008993999999563e-01 -1.081863659899999996e+00
4.616948095199999713e+00 -7.709551331000000784e-01 -1.080664916399999953e+00
4.627022635100000336e+00 -6.404060669000000150e-01 -1.078415405699999940e+00
4.044046999499999906e+00 -2.034471526999999946e-01 -1.084969488600000087e+00
4.678854435599999917e+00 -2.353829253000000177e-01 -1.081564720699999871e+00
3.978298169999999967e+00 -6.778791261000000068e-01 -1.081346021800000168e+00
4.614366096800000427e+00 -7.862614423999999547e-01 -1.080664916399999953e+00
4.049099393799999724e+00 -2.178734522999999923e-01 -1.086522402900000017e+00
4.678004304099999899e+00 -2.517134919000000304e-01 -1.081564720699999871e+00
3.974004471100000213e+00 -6.914304918000000466e-01 -1.080828383700000117e+00
4.592394489000000135e+00 -7.990231523000000946e-01 -1.076165895100000158e+00
4.057957621899999978e+00 -2.325591023999999951e-01 -1.089110593499999835e+00
4.679042686499999881e+00 -2.681531126000000209e-01 -1.082014622800000048e+00
3.973468752300000073e+00 -7.056362476000000994e-01 -1.081346021800000168e+00
4.591496053700000246e+00 -8.153898390000000607e-01 -1.076615797199999891e+00
4.047436652600000073e+00 -2.468426330999999863e-01 -1.086522402900000017e+00
4.687754063399999893e+00 -2.858939263999999980e-01 -1.084264133400000052e+00
4.563857060300000157e+00 -9.094635681999999610e-01 -1.074366286599999887e+00
3.976558310099999716e+00 -7.212292029999999299e-01 -1.082898936100000098e+00
4.596146505200000121e+00 -8.336040420999999423e-01 -1.078415405699999940e+00
4.046595827600000028e+00 -2.602632319000000027e-01 -1.086522402900000017e+00
4.686780217299999940e+00 -3.014377067999999826e-01 -1.084264133400000052e+00
4.687279668000000399e+00 2.226864330999999975e-01 -1.083364329199999920e+00
4.051444972399999678e+00 -2.747788539999999613e-01 -1.088075317299999956e+00
3.962618809899999928e+00 -7.329970434000000479e-01 -1.079793107500000016e+00
4.677922372200000289e+00 -3.172680753000000076e-01 -1.082464524900000002e+00
4.589376263500000164e+00 -8.489333427999999904e-01 -1.077515601500000031e+00
4.049105406399999829e+00 1.782041828999999800e-01 -1.086004764799999966e+00
4.701656410800000074e+00 2.069234447999999948e-01 -1.086513644100000064e+00
3.960296476899999973e+00 -7.454423609999999423e-01 -1.079793107500000016e+00
4.659292204700000717e+00 -3.323470285000000302e-01 -1.078415405699999940e+00
4.609323888799999658e+00 -6.543619922999999172e-01 -1.074816188700000064e+00
4.063214677500000427e+00 1.646161753999999811e-01 -1.089628231599999886e+00
4.706244365299999899e+00 1.906677371000000121e-01 -1.087413448299999974e+00
3.955772956100000126e+00 -7.588981703000000634e-01 -1.079275469300000179e+00
4.049427930700000289e+00 -3.030564575999999954e-01 -1.088075317299999956e+00
4.675593434200000509e+00 -3.499182620000000354e-01 -1.082464524900000002e+00
4.063764532699999599e+00 1.504321228999999926e-01 -1.089628231599999886e+00
4.691301987500000159e+00 1.736622560999999954e-01 -1.083814231299999875e+00
3.966236242399999945e+00 -7.759881611000000179e-01 -1.082898936100000098e+00
4.568916309100000461e+00 -8.939016106000000628e-01 -1.074816188700000064e+00
4.031011869100000311e+00 -3.158314467000000181e-01 -1.083416574300000157e+00
4.672400739499999567e+00 -3.660845299000000108e-01 -1.082014622800000048e+00
4.637547389999999936e+00 -5.751713120000000456e-01 -1.078865307900000126e+00
4.070057193300000264e+00 1.364398706000000128e-01 -1.091181146000000046e+00
4.691879613500000268e+00 1.572851232999999960e-01 -1.083814231299999875e+00
3.967292616900000013e+00 -7.905830642000000186e-01 -1.083934212399999986e+00
4.572113492599999773e+00 -9.277143245000000205e-01 -1.077065699400000076e+00
4.035603368500000343e+00 -3.310775284999999957e-01 -1.084969488600000087e+00
4.671027595199999993e+00 -3.832072011000000056e-01 -1.082014622800000048e+00
4.078253896399999689e+00 1.217521049999999994e-01 -1.093251698400000027e+00
4.684633085999999835e+00 1.398549364000000184e-01 -1.082014622800000048e+00
3.956935650000000138e+00 -8.028903678000000044e-01 -1.081863659899999996e+00
4.042182667699999676e+00 -3.451157864999999658e-01 -1.087040041100000076e+00
4.660022753699999853e+00 -3.978660910999999856e-01 -1.079765112100000035e+00
4.063185831700000250e+00 1.078178736999999970e-01 -1.089110593499999835e+00
4.685071092699999440e+00 1.243197885000000003e-01 -1.082014622800000048e+00
4.037167395300000017e+00 -3.581769757999999637e-01 -1.086004764799999966e+00
4.525543646500000072e+00 -1.067291234000000033e+00 -1.073466482299999969e+00
4.648972163499999866e+00 -4.124562167000000446e-01 -1.077515601500000031e+00
4.680681233299999633e+00 4.248203080000000076e-02 -1.080664916399999953e+00
4.057743422300000624e+00 9.350021859999999019e-02 -1.087557679200000127e+00
4.704958746199999986e+00 1.084136243999999916e-01 -1.086513644100000064e+00
4.031980190799999697e+00 -3.726159140999999453e-01 -1.084969488600000087e+00
4.563450971500000009e+00 -9.600061623000000210e-01 -1.076615797199999891e+00
4.653250631000000581e+00 -4.300306935000000053e-01 -1.078865307900000126e+00
4.616653738000000118e+00 -6.718511145000000129e-01 -1.077065699400000076e+00
4.061908038899999518e+00 7.941121919999999390e-02 -1.088592955400000006e+00
4.695566671699999972e+00 9.179938849999999539e-02 -1.084264133400000052e+00
4.026741428999999428e+00 -3.870216449000000170e-01 -1.083934212399999986e+00
4.659402446600000580e+00 -4.478285061999999761e-01 -1.080664916399999953e+00
4.064092088399999803e+00 6.526326540000000620e-02 -1.089110593499999835e+00
4.678322099299999870e+00 7.512688440000001022e-02 -1.080215014299999998e+00
4.019528983799999899e+00 -4.012021134000000600e-01 -1.082381298000000047e+00
4.661607993899999691e+00 -4.652900840999999454e-01 -1.081564720699999871e+00
4.551270806099999788e+00 -9.890091272000000044e-01 -1.075266090800000018e+00
4.637444519399999798e+00 -5.916022260000000088e-01 -1.079315210000000080e+00
4.070090241599999992e+00 5.114904150000000593e-02 -1.090663507899999995e+00
4.027929525700000291e+00 -4.141142520000000160e-01 -1.084969488600000087e+00
4.650514338499999845e+00 -4.781226321000000001e-01 -1.079315210000000080e+00
4.553499235700000369e+00 -1.006151733700000106e+00 -1.076615797199999891e+00
4.574572733300000138e+00 -9.448506251000000633e-01 -1.078415405699999940e+00
4.510529456000000437e+00 -1.112902020399999969e+00 -1.072566678100000059e+00
4.054789809299999881e+00 3.680141779999999974e-02 -1.086522402900000017e+00
4.035989598399999601e+00 -4.298975843999999769e-01 -1.087557679200000127e+00
4.648730702800000003e+00 -4.951643334999999979e-01 -1.079315210000000080e+00
4.542353975500000196e+00 -1.020331657200000075e+00 -1.074816188700000064e+00
4.049098103999999587e+00 2.261464349999999998e-02 -1.084969488600000087e+00
4.702236817200000196e+00 2.626249270000000080e-02 -1.085613839800000147e+00
4.525465579700000518e+00 -1.033145466200000140e+00 -1.071666873799999919e+00
4.644947541199999641e+00 -5.119864963000000380e-01 -1.078865307900000126e+00
4.030546339599999861e+00 -4.442645003000000314e-01 -1.086522402900000017e+00
4.060743460000000304e+00 8.505008300000000201e-03 -1.088075317299999956e+00
4.009855887999999702e+00 -4.554472495000000398e-01 -1.081346021800000168e+00
4.529241561000000083e+00 -1.051487877600000065e+00 -1.073466482299999969e+00
4.643224241000000418e+00 -5.273864618999999365e-01 -1.078865307900000126e+00
4.058168971099999744e+00 -2.894689448999999692e-01 -1.090145869799999945e+00
4.616327871800000260e+00 -6.874440256000000637e-01 -1.077515601500000031e+00
4.062680258700000380e+00 -5.672164300000000908e-03 -1.088592955400000006e+00
4.015998607799999398e+00 -4.696396209000000543e-01 -1.083416574300000157e+00
4.675023236399999504e+00 -6.527095000000000119e-03 -1.079315210000000080e+00
4.653063113600000023e+00 -5.441393312000000204e-01 -1.081564720699999871e+00
4.600092377500000218e+00 -8.658704576000000319e-01 -1.080664916399999953e+00
4.014334818500000068e+00 -4.836549970999999837e-01 -1.083416574300000157e+00
4.068427659500000182e+00 -2.059240370000000112e-02 -1.090145869799999945e+00
4.631787909699999872e+00 -5.580469664999999635e-01 -1.077065699400000076e+00
4.682762770500000116e+00 -2.370186950000000015e-02 -1.081114818499999908e+00
4.527475850100000088e+00 -1.084443984800000038e+00 -1.074816188700000064e+00
4.018373539899999791e+00 -4.983783424000000073e-01 -1.084969488600000087e+00
4.052876745399999869e+00 -3.466135520000000053e-02 -1.086004764799999966e+00
4.696292191399999538e+00 -4.016402720000000065e-02 -1.084264133400000052e+00
4.527642147399999928e+00 -1.100371691500000138e+00 -1.075715992999999981e+00
4.014693099499999640e+00 -5.121573669000000217e-01 -1.084451850500000036e+00
4.056594489100000089e+00 -4.885463629999999696e-02 -1.087040041100000076e+00
4.690277587599999798e+00 -5.648624879999999959e-02 -1.082914426999999957e+00
3.999472641999999745e+00 -5.244103806000000034e-01 -1.080828383700000117e+00
4.054467616800000229e+00 -6.298481300000000060e-02 -1.086522402900000017e+00
4.444235416699999774e+00 -1.113016737499999964e+00 -1.057719907799999914e+00
4.688103328100000411e+00 -7.282813409999999710e-02 -1.082464524900000002e+00
